# 3D point list with one line of data per point:
#   POINT3D_ID, X, Y, Z, R, G, B, ERROR, TRACK[] as (IMAGE_ID, POINT2D_IDX)
# Number of points: 101, mean track length: 11.198019801980198
9809 -2.1067908861733433 0.92472404491434357 23.833472178211256 154 154 154 1.1961312646328077 12 50 26 453 29 475 13 53 27 452 14 59 21 425
9824 -1.6724393750537752 1.0788683390960971 23.910715730132431 23 23 23 2.8662056286938049 13 75 29 507 27 484 30 536 14 85
10001 -4.0211056314659306 0.71672455639967791 34.170979137046942 0 0 0 1.8484495298309167 6 6 7 6 5 12
10041 -1.8935950806659454 0.65772207102659619 24.405072494516837 0 0 0 1.8457885793811286 11 14 25 404 27 407 7 13 9 17 6 10 12 16 10 20 4 19 13 18 28 408 24 389
12880 -2.3689612206966797 0.68189904920312483 25.170886502113564 113 113 113 1.4592981853390818 25 405 26 413 3 16 7 15 9 18 27 409 11 16 12 18 24 390 6 12 10 21 13 15 21 403 23 410 28 409
10045 -2.1547775350380163 0.91549725112088365 23.891351063561025 106 106 106 2.0671482084019717 11 45 12 49 26 452 28 453 27 451 29 474 6 28 4 35 13 50 30 493 14 58 17 407 2 27 15 68
12049 -1.7167335073209264 0.76935416693134573 23.743397179763477 168 168 168 1.3604093424042869 13 27 15 40 28 423 29 443 27 422
12216 -1.6759879494176231 1.0124251929089705 23.555091530293755 42 42 42 1.2214301986667246 10 64 11 63 13 68 23 444 12 65 29 495 28 474 26 475 14 77 27 472 15 91 25 460 30 524
10702 -1.8461064957145816 0.8495088378347484 24.34105715443885 145 145 145 1.7125289926370344 3 23 7 25 9 35 11 31 12 36 13 38 26 435 6 20 10 39 24 406 25 427 28 433 5 23 21 413 23 418 27 432 30 474 8 30 14 41
10703 -1.5882813897034835 0.95846073764045547 23.63288224359972 97 97 97 1.6504011981069326 10 59 9 53 11 50 8 46 3 30 13 55 28 461 27 458 2 29 12 54 25 447 4 38 26 454 24 426 15 75
10035 -1.9350735823857135 0.70717874834285011 23.840528528996906 89 89 89 2.259027212464336 23 412 1 16 3 18 24 394 7 18 6 15 4 26 9 25 10 26 26 417 5 18 11 20 25 411
9838 -1.8011575063727314 1.1624613549313154 23.782187317434776 25 25 25 1.9482434663875239 12 81 13 90 9 79 23 476 6 68 24 466 3 45 14 98
11102 -1.5059596273930431 1.1649196126093353 24.095039187337186 0 0 0 1.9693928728995196 11 79 28 496 13 86 24 458 18 431
13136 -2.2085883286671053 0.91169611883359913 24.122999718000184 152 152 152 2.3804104133625037 15 67 30 491 14 53 29 468 25 436 9 44 22 430
11629 -1.1687977416213451 1.1613108225857909 24.294028016378036 127 127 127 2.4408364658752091 3 42 15 112 10 78
12130 -2.2374725304256571 0.71118009893342071 25.890322813357457 238 238 238 1.9807316904522554 7 11 9 16 24 387 26 410 12 20 25 406 10 24 27 411 23 408 28 410 13 16 29 419 30 436
11866 -1.5837063539351264 1.212644784874185 23.623683487219193 45 45 45 1.8067465940980838 9 84 6 73 4 58 3 51 21 465 2 48 23 484 10 96 11 87 25 495 5 53 7 65 24 471 17 437
12065 -2.0420331481962011 0.93210859721633077 24.002491110275329 77 77 77 1.575174655619096 13 52 29 476 15 70 26 448
12232 -1.903395828901765 0.98716924403459771 23.493428267562411 46 46 46 2.0160287112022544 14 72 10 63 9 57 8 50 11 55 13 64 28 469 26 469 29 491 15 88 25 455 30 521 4 41 5 37
12110 -1.2067595029690235 1.5193917450095258 23.401437496424919 101 101 101 0.51756305869518682 10 108 15 142
12114 -1.1864212084599361 1.5796827670162839 23.619688889137624 56 56 56 0.21738750192558245 10 111 15 149
12122 -1.5977904042554585 0.91571283944885129 23.675685686336195 207 207 207 1.1783104215314808 12 46 13 51 28 454 15 69 27 446
12044 -2.2260737862655104 0.77050761198174145 24.316923990529169 205 205 205 1.6243929721568036 27 423 28 422 26 425 29 436 12 27 13 26 15 35 30 457
389 -1.9925609259960748 1.0121352672569259 23.524925124413226 68 68 68 1.2974585203482343 10 69 9 60 6 44 11 62 8 52 12 66 13 71 29 499 28 475 26 477 7 44 27 470 15 94 23 450 24 442 25 463 14 78 30 527
12239 -1.9861523826816452 0.58871555864282576 24.447844929594012 0 0 0 1.5029522555975292 26 407 1 10 3 11 7 8 9 12 11 7 25 399 6 7 10 14 12 9 23 401 24 384 27 399
48 -1.5313612956699154 1.2085636038141376 23.439636812235463 52 52 52 2.1248536329385566 10 97 26 511 27 514 9 85 14 107 15 128 23 485 30 582 29 556
8975 -1.7925564381499961 1.1440554516229458 23.512301816830124 21 21 21 2.0964438929978848 26 502 11 85 27 499 28 502 29 530 8 73 10 87 25 484 15 121 17 425 18 440 30 571
12214 -1.7140344608878215 0.8094849041127522 23.704491325468169 53 53 53 1.6369356147391128 27 429 28 430 9 32 11 28 12 32 13 34 26 431 25 425 10 37 8 28 15 46 24 402 29 450 30 469 1 20
12238 -2.2100734715858876 0.7914998578598238 24.021067042367061 125 125 125 1.8204741569576814 8 27 4 29 26 429 25 423 2 21 14 35 5 21 6 17 7 22 27 427 12 31 9 28 24 399 10 34 11 25 23 416 29 448
12237 -2.0190114809251214 0.85368637377905698 24.433485174355713 114 114 114 1.8635206434961484 6 21 23 420 3 24 7 27 8 33 20 400 2 24 24 405 9 37 16 402 17 401 18 403 21 414
9788 -2.1066449644142304 0.75695306516241312 23.755478637252871 234 234 234 2.3534275755937388 10 35 14 33 29 445 11 23 26 427 12 28 25 414 15 37 30 462 9 27
12234 -1.9010051096272504 1.0183451060986473 23.456444762754447 75 75 75 1.7723401324056844 2 35 9 64 11 65 21 441 23 448 12 67 13 74 17 415 28 477 16 414 26 480 15 97 18 422 6 47 25 464 29 503 3 35 7 45 24 444 27 471 14 80 20 420
12067 -1.6969287935653219 0.91830357984864874 23.381032105321946 145 145 145 1.590211841102309 28 457 15 72 24 425 30 498 10 53 27 453
12226 -1.8598907653755199 0.67228126245702224 24.628210925066515 117 117 117 2.0665332103797787 9 21 26 412 3 14 7 14 25 401 1 12 11 18 6 11 8 19 10 22 12 17 13 19 24 391 27 408 28 411
12700 -2.1747192534904816 1.0945552881982763 23.893608964166933 53 53 53 0.65740641715067016 28 490 30 545 13 81
12225 -2.4307727240195409 1.2089584016652768 24.80952582893368 0 0 0 1.5488542162224423 3 49 26 501 9 78 7 61 27 497 11 84 13 89 12 80 6 69 23 477 28 499 29 529 10 90 25 481
12058 -2.1733082619370188 0.85964752743571038 24.484418430047761 176 176 176 1.6763365182619674 13 40 28 436 15 56 29 457 30 478 14 45
12690 -2.1016070902857984 1.0435666877823992 24.109412256208454 0 0 0 1.4550967430255601 5 40 6 46 15 92
12224 -2.2545762222946837 1.0706478033983422 24.344064374488546 57 57 57 1.4528821568896511 9 66 23 452 26 481 3 38 15 93 7 48 27 479 28 479 22 458 6 51 10 71 11 67 12 69 13 73 25 465 5 42 8 54 24 446 17 417 18 426 20 427 21 443 29 502 16 419
9854 -1.4555687602831258 1.1968923430804044 23.234921177870731 78 78 78 1.4997417438524472 8 78 9 86 6 74 23 486 21 466 12 91 28 513 26 512 27 515 2 46 10 98 11 88 13 99 25 496 15 129 3 53 4 59 5 54 29 550 24 473 7 66 14 111 17 435 30 583
8017 -1.5758342559540754 1.1710919805924538 23.580421407692537 74 74 74 1.5990917826444329 10 91 12 84 25 485 27 504 15 124 29 539 26 505 28 507 13 94 14 103 20 440 30 576 21 457
13642 -2.4414929975689206 0.95534570178518308 24.845771733678387 92 92 92 1.9414777442292546 3 27 26 447 7 34 27 449 25 440 11 44 16 409 18 411 21 424 24 422 20 407 6 27 10 52 5 29 17 408 28 452 29 472 30 490 9 48 12 48 13 49 23 436
12220 -1.7463090646951167 0.98717387210683405 23.467675533034743 29 29 29 1.575482695678327 10 61 25 456 12 61 29 492 26 471 28 471 15 89 14 73 27 466 22 444 23 442 6 38 11 56 13 63 24 434 30 522 5 38
405 -1.6815361408678138 1.2238034301685579 23.568564639876904 30 30 30 1.435430719693334 10 100 8 79 12 93 6 77 13 100 26 513 27 520 15 130 28 516 11 90 23 488 24 475 25 498 30 585 14 109 29 559
9109 -2.1042039905125489 0.96832364730662046 23.806203961324041 85 85 85 1.6011186472411909 8 47 10 60 9 54 23 441 11 54 21 432 25 452 29 485 6 35 13 60 28 463 26 464 12 58 27 462 15 77 30 505 24 429 14 66
1399 -2.0310480102356956 0.94266878874827142 23.493194080477053 155 155 155 1.5505648338182463 9 51 6 34 7 37 11 49 24 428 14 64 29 483 26 461 15 79 23 438 30 507 20 414
564 -2.0322302950293967 0.89752642385385328 23.611025842032035 70 70 70 1.2104894046427315 10 50 9 46 23 434 6 30 8 42 11 43 25 438 12 45 21 422 4 36 27 445 24 420
12229 -1.7524786702151425 1.0654924708248612 23.456043710892395 47 47 47 1.2480253524761755 27 489 13 78 15 107 28 485 29 517 8 59 23 458 14 88 20 432 30 546
574 -2.1926834860376925 0.82712790835001737 23.868083749267985 105 105 105 1.8205987978882228 11 33 8 32 26 436 10 40 9 36 24 411 3 22 6 23 13 39 25 429 28 438 15 58 30 482 17 397 18 401 20 398 21 415 23 423 29 456
3497 -1.7090223575275176 0.94640917442621364 23.618649472318872 87 87 87 1.8979752130849976 6 31 12 56 9 49 11 46 22 438 25 445
9787 -2.439176556155378 0.85342509902669272 25.314861994011689 239 239 239 1.7116432136587152 26 430 3 21 7 23 20 399 9 31 23 417 24 401 25 424 18 402 17 399 11 27 21 412 6 19 1 18 8 29 10 36
12236 -2.4174852944241576 0.88370515740491729 24.646305311610995 78 78 78 1.6864584726285874 9 41 10 44 12 40 28 442 24 414 25 431 26 438 7 28 27 436 13 41 21 417 11 34 15 59 20 403 5 25 23 428
31 -2.367585975304177 1.0300792726363754 24.330158986598963 64 64 64 1.7788820779149519 11 59 26 473 7 42 9 59 10 66 23 447 25 458 3 34 6 43 12 63 5 39 8 51 16 417 18 419 21 438 24 437 4 40 17 412 20 422
6654 -2.1201150534071034 0.91049899098287213 24.020922241515049 114 114 114 1.0875472256674743 9 45 10 49 23 433 6 29 8 41 25 437 24 419
32 -2.0946430177800881 1.0062858479207175 23.605640565139211 63 63 63 1.2992403648846784 10 67 11 61 26 474 12 64 25 462 13 67 28 473 29 498 27 469 24 439 14 76 30 525
7380 -1.9008456024593514 1.0570319559511712 23.425380366710527 34 34 34 1.6180832810479637 10 72 11 73 23 457 12 71 13 79 28 484 26 488 27 487 8 56 20 431 25 474 5 44
13147 -2.2519863769979693 1.1569322188113367 24.327609625628401 0 0 0 1.0612642066646549 11 76 15 114 26 495
12231 -2.2147960529333965 0.96347700119161439 24.136212686363393 72 72 72 1.4263487832484538 27 456 28 458 29 478 9 50 11 52 3 29 21 427 24 427 26 460 13 54 15 74 30 499 12 55 14 61
4718 -1.5806418493833116 1.0665161522738587 23.547949608469409 25 25 25 1.5297099487581285 10 74 9 68 23 455 11 71 17 418 21 444 29 514 12 74 28 482 26 486 16 421 27 490 15 104 20 428 25 469 30 544 5 43 24 449 8 55 18 428
12233 -1.5712048429493295 0.98528987494218601 23.372666931481064 60 60 60 2.1567934277340162 14 75 27 467 10 65 12 62 15 90 26 466 5 36 6 36 25 457 11 57 7 40 23 440 21 433 29 496 30 523 20 416 17 409
4130 -1.5779336357015938 1.026898072744737 23.523491146783279 39 39 39 1.7393798848550845 9 61 6 48 3 36 2 36 28 476 12 68 26 478 27 477 13 69 23 445 4 44 24 440 7 47 18 421
9808 -1.6957680631003045 0.88886634021274469 23.426630073391078 51 51 51 1.2921392745504943 29 473 28 451 15 66 8 40 13 48 14 55 30 492
7397 -1.699626241210495 1.1509160078260785 23.593854211445958 37 37 37 1.6748655997338608 10 89 9 77 8 70 2 42 23 471 3 46 6 64 13 91 26 499 12 83 21 451 27 501 28 503 4 54 5 49 11 82 25 480 7 59 14 100 15 123 17 426 20 438 24 461 29 533 30 574
12073 -2.1821788931766384 0.99420759781579349 23.997312228973986 53 53 53 1.0662250137220348 6 41 14 69 15 83 29 488 30 516
383 -1.9947934110575984 0.97126610837817118 23.672519340846936 38 38 38 1.1435881608324006 23 443 25 453 24 431 26 465 30 511
12240 -2.1912744748906583 1.2213104922632412 23.864385487368203 46 46 46 1.7728247181050709 3 55 9 87 7 67 27 518 26 509 11 89 4 61 5 56 6 76 25 497 2 51 12 89 10 99 13 97 15 126 23 487 24 474 28 512 8 82
11632 -1.1938266343338346 1.2687483142641378 23.942330648957235 0 0 0 1.7768957289551519 10 101 9 88 11 91 8 83 7 69 6 80
12217 -1.5885427928646105 1.2182746273086467 23.524838293227678 37 37 37 1.5362140198975935 15 127 13 98 12 90 26 510 27 519 28 514 29 555 14 114
12158 -2.350449654238973 0.13430830267723787 18.489485300162205 0 0 0 0.74649457594190283 13 1 14 0
12659 -2.2278608480610895 0.72140856110268892 24.419729373253443 249 249 249 1.128600560248892 30 451 27 420 28 417 12 24 13 22
13327 -2.6028749777637765 0.64405384502040253 22.154784251092707 0 0 0 1.3734650596630607 1 14 13 24 14 29 7 19 9 26 10 28 6 16 11 21
10009 -1.9395790753129574 1.143850059930686 23.524842221962057 0 0 0 1.6113264194093493 4 51 25 482 7 56 23 475 6 67 5 51 10 85 8 72 21 454 24 464
12063 -2.2261546359698605 0.96093211165898573 24.385597124291021 140 140 140 2.0536620986696388 16 410 8 44 10 54 18 412 20 413 25 441
12230 -2.3268988611910943 1.1733121712421624 24.744082914922636 61 61 61 1.8081467441372563 27 493 28 492 26 494 13 85 11 80 9 71 15 110 12 77 10 82 25 477 30 554 29 522 23 467
12228 -2.0834699948254927 1.0697886037506226 23.57730432379341 34 34 34 1.8466441334263726 4 46 9 69 11 74 3 39 26 489 13 80 27 491 2 38 7 51 5 45 6 54 10 77 12 75 25 473 28 487 8 61 29 516 14 89 15 108 18 427 23 461 24 450 30 548
13634 -1.9921393400586083 0.94620425253697305 23.56187613769437 194 194 194 1.5680877257397479 10 58 9 52 4 37 12 53 29 484 21 429 28 460 5 34 8 48 13 57 14 65 15 80 27 457
378 -2.0650292487280937 0.92003526090081189 24.924556695569603 205 205 205 1.5504034836588847 9 42 24 413 10 45 11 36 12 41 26 440 27 439 25 433 23 429
12235 -2.0581938125025938 1.1446299161269344 23.552458378134901 13 13 13 1.4483062972559837 23 474 21 458 3 44 7 60 2 43 6 66 4 55 5 50 8 71
12242 -1.6212729182503021 1.0501006471916772 23.319708251719611 30 30 30 1.7909198309068426 9 67 23 454 13 76 26 483 28 481 29 513 14 86 15 103 10 73 11 70 12 72 25 470 27 483 8 57 24 448 7 50 30 543
12163 -1.6442097311298867 0.78956984252302242 23.998198512491289 0 0 0 2.2568132551792268 13 28 11 24 26 428 2 20 4 28 10 32 12 29 27 424 28 425 5 20 6 18 8 26 7 21 9 29 15 38 24 397 25 418 29 442
13641 -1.5716900130266933 1.1166242668691517 23.560733357447745 81 81 81 1.9318348822987468 28 491 16 427 23 465 12 79 2 40 13 83 25 476 27 495 29 523 18 435 3 41 21 448 10 81 5 46 9 70 14 94 20 433 8 62 24 454
12219 -1.6990138244918593 0.96172172322696137 23.433358024965848 42 42 42 1.7643452640077004 9 56 8 49 13 61 23 439 28 466 15 82 7 39 20 411 29 487 30 514 21 428 27 461 24 432 14 67 5 32
12140 -1.2748514181380539 1.1952503071588296 23.313581512572043 0 0 0 0.77950692384833087 10 94 25 494 2 47 29 546
9802 -2.0900946969974612 0.86292422763198151 23.490783742588171 183 183 183 2.056246023360675 5 28 29 465 28 448 30 489
12728 -1.3264524333384737 1.1978460065327525 23.491312966653261 0 0 0 1.3543607844883327 12 85 27 508 17 436 2 45
12096 -1.8231158967156622 1.1009153504539533 22.814510073829705 21 21 21 2.0648700593564819 9 75 28 501 10 86 6 62 24 465 29 532 23 469
10042 -1.8292284736274129 1.1466886709744561 23.619853993785249 16 16 16 1.7492184076419679 6 63 8 69 21 456 4 52 9 76 5 47 2 41 7 57 27 498 15 120 23 470 25 483 24 460 30 570
12074 -2.3976400264433342 1.0574551721354943 24.855196133328782 60 60 60 1.6633401600750766 27 468 15 85 13 66 28 470 29 490 30 518
12241 -1.7470488595027622 1.0211457616940134 23.387002835113734 67 67 67 1.7556625649678477 10 70 11 66 9 62 8 53 23 449 6 49 21 442 12 70 17 413 28 480 16 413 26 482 15 98 7 46 27 476 14 81 20 423 18 420 13 72 24 445 25 466 29 504 3 33 30 533 2 32
12083 -1.5829839532394687 1.0890804517253478 23.691744723308389 0 0 0 1.3353247155700596 7 52 14 87 4 48 6 55
12369 -1539.9525299385509 -5604.1728257687128 403959.98164336459 220 220 220 0.17204485441692796 18 121 22 122 21 120 24 119 17 119 16 124 27 121 29 127 25 122 26 120 23 128 28 122 30 127 19 116
12132 -1.2582777599053299 1.0770246651767559 21.579941266179596 0 0 0 1.9310848844704573 23 478 27 509 7 62
11105 -1.5409511917032783 1.2090301919053226 23.671295268091018 0 0 0 1.3950158262341286 28 509 13 95 11 86 24 472 25 493
12245 -2.2175376272002927 0.90281103014924735 24.356415241065221 142 142 142 1.2163659736029075 10 48 8 38 3 26 23 432 26 443 12 43 21 420 16 405 28 447 27 440 7 30 18 408 20 405 5 27 11 38 24 418 22 431 30 485 13 45 15 61
12244 -1.6234958096358056 0.88608621517557107 23.81860202844091 57 57 57 1.6968802320290155 7 29 26 441 9 43 10 47 11 37 3 25 4 33 5 26 6 24 13 46 2 25 12 42 8 36 24 415 27 437 28 445 25 434
12716 -2.341082763902445 1.225109734385087 24.885027012357195 0 0 0 0.85054805012599988 28 500 15 119 27 502 9 82 26 504
12215 -2.3132984098359901 0.84001355207747386 24.407387739104255 87 87 87 1.1210184034784996 13 35 29 453 15 48 14 40 28 435
12001 -2.4648091919545432 1.0560342996145831 25.178542488488532 99 99 99 1.3731522411912149 26 470 28 468 29 486 27 465 30 504 11 58 12 60 13 62 10 62
12168 -1.7171123876316419 0.85648482045613816 23.852545873313346 0 0 0 1.0567760411395188 13 42 29 459 28 440 10 43 11 35 25 430
12167 -2.0542919953705239 0.8724606600600523 24.695170585400646 164 164 164 2.2406008559552308 13 37 28 439 29 458 30 479 14 43 15 54
12123 -2.142659890281768 0.96167629847332048 23.743663061204309 82 82 82 1.5733050087879523 11 53 28 462 13 59 26 463 27 460 15 76
