# 3D point list with one line of data per point:
#   POINT3D_ID, X, Y, Z, R, G, B, ERROR, TRACK[] as (IMAGE_ID, POINT2D_IDX)
# Number of points: 104, mean track length: 13.663461538461538
6985 -1.4020625042409016 1.7111055032062901 20.466077669673581 0 0 0 1.1635024198498038 12 82 5 48 10 88 4 53 27 500 22 466 7 58 19 447 14 99
10993 -2.0268662636998576 1.5353113740761346 21.758485925578189 0 0 0 0.35759864537638042 27 435 30 481 12 38 15 55
7611 -1.3461020463082234 1.5438048400246922 20.188195313976202 0 0 0 1.5816741343993539 13 61 28 466 29 487 14 67 24 432 9 56 27 461 15 82 8 49 22 444 23 439 7 39 30 514
11619 -1.5795483616513348 1.5707373120092811 20.153942619349543 0 0 0 1.1181045113614532 22 450 30 527 7 44 8 52 15 94 12 66 10 69 25 463 27 470 9 60 28 475 13 71 26 477 29 499 11 62 24 442 14 78 23 450 6 44
7612 -1.5063379050361505 1.6070400088628862 20.083113991716264 0 0 0 1.2789447417600988 12 71 25 474 10 72 20 431 13 79 28 484 5 44 11 73 26 488 27 487 23 457
7621 -1.4910485699840059 1.3580341952753006 21.509379477983423 0 0 0 1.4642389597281251 9 21 13 19 3 14 25 401 5 16 10 22 12 17 11 18 1 12 18 390 8 19 2 17 19 405 20 392 21 401 22 407 23 409 24 391 27 408 7 14 28 411 4 20 29 421 6 11 26 412 15 19 14 17 30 433
10961 -0.94772542485879496 1.4202560263902051 22.26780139876065 0 0 0 1.472634963146255 5 14 11 10 10 18 12 11 9 15 2 16 3 13 6 9
11629 -1.2546383041615785 1.6433642035017628 20.391830152806566 0 0 0 1.8050974233483299 10 74 22 457 29 514 26 486 5 43 9 68 11 71 12 74 24 449 28 482 18 428 14 87 25 469 27 490 6 55 15 104 7 52 23 455 3 41 16 421 20 428 17 418 30 544 8 55
8654 -1.7230557717066282 1.5230792305510594 20.687952968406993 0 0 0 2.1249918557908538 11 45 26 452 12 49 13 50 29 474 27 451 28 453 15 68 30 493 14 58
10324 -1.4118294674847141 1.3426725545677127 20.896329406447862 0 0 0 1.2994261239139542 9 23 13 20 10 25 11 19 12 22 24 393 25 409 28 413 29 424 15 25 14 23 8 22 23 411 26 415 27 418 22 410
10317 -1.2454634789659369 1.6751189091804628 20.33250085792471 0 0 0 2.0346517694444044 10 81 22 463 13 83 28 491 5 46 9 70 20 433 24 454 25 476 14 94 29 523 4 48 2 40 8 62 23 465 12 79 21 448 27 495 19 441 1 40
10346 -1.2537264196610927 1.7357425535075477 20.49058950647126 0 0 0 2.1273413401778258 10 91 12 84 13 94 26 505 28 507 29 539 20 440 14 103 25 485 15 124 27 504 1 45 21 457 30 576 6 65
10956 -1.6011996703338049 1.286800310464437 21.456839404147136 0 0 0 1.1478135626516599 2 15 4 17 9 12 10 14 20 385 22 401 26 407 27 399 1 10 3 11 24 384 25 399 5 13 7 8 18 385 8 12 11 7 12 9 19 398 21 398 23 401 29 411 6 7 13 10 28 397 15 9 30 426
11624 -1.3894738382703218 1.6232209405848943 20.18510613789438 0 0 0 1.1971890052566898 28 485 29 517 13 78 20 432 14 88 27 489 15 107 8 59 23 458 30 546
10962 -1.9195615655143139 1.3774485025344376 22.093270418325819 0 0 0 2.5687751966783265 4 22 30 430
11630 -1.6708704129877974 1.7101498278175618 20.532665873406476 0 0 0 1.5035773149111362 6 66 18 438 14 102 1 42 17 428 2 43 8 71 3 44 5 50 29 537 4 55 23 474 19 443 7 60 21 458 22 470 16 430
10964 -1.5952303163737234 1.3325188861298805 21.258604591600793 0 0 0 1.3576013816028489 4 23 9 20 11 13 12 15 13 17 22 403 27 406 28 407 25 403 10 19 24 388 7 12 19 404 26 411 14 16 29 420 15 17 30 432
8358 -1.7799244738706057 1.5236624398276728 21.090345859983124 0 0 0 1.6324535717875153 2 27 10 48 5 27 19 422 24 418 12 43 3 26 25 436 26 443 27 440 28 447 4 35 9 44 16 405 20 405 1 26 23 432 7 30 8 38 11 38 13 45 18 408 29 461 15 61 21 420 22 430 30 485 17 407
8 -1.2849428366148474 1.493614470055302 20.566771714219147 0 0 0 1.6705592328758241 10 47 13 46 1 24 3 25 26 441 5 26 9 43 11 37 28 445 24 415 25 434 22 427 4 33 7 29 23 430 20 404 29 462 12 42 19 421 21 419 15 60 27 437 6 24 2 25 17 405 14 48
10965 -1.5181389096839342 1.3387564422938512 21.309702891645166 0 0 0 1.4742927278032911 4 19 9 17 11 14 12 16 13 18 28 408 10 20 15 18 27 407 6 10 7 13 24 389 25 404
10984 -1.8559266068341873 1.4828213319360251 21.585898973239047 0 0 0 1.2083232237496719 18 401 30 465 15 41
11003 -1.340167166793272 1.4770423698806456 20.119855772294752 0 0 0 1.0038984070671704 13 48 14 55 28 451 29 473 15 66 8 40 30 492
11006 -1.9804678868653114 1.6297686033407042 21.664535954286514 0 0 0 1.0984177340786914 10 57 11 51 25 450 26 459 14 60 6 33
7613 -1.5437178997912857 1.3454173767035067 20.667634667150725 0 0 0 1.3924087240900662 9 25 25 411 1 16 3 18 10 26 26 417 5 18 4 26 20 396 27 419 7 18 18 395 19 408 22 412 8 23 11 20 21 407 23 412 24 394 12 23 17 393 13 21 6 15 28 415 29 427
11621 -1.9518203215170031 1.523661130581794 21.437228394290386 0 0 0 1.7193339494996203 13 41 12 40 20 403 23 428 27 436 26 438 28 442 5 25 9 41 11 34 10 44 25 431 8 35 15 59 21 417 24 414 22 426 30 483 7 28 17 408
48 -1.9746558136212551 1.5872743335908515 21.61399654870808 0 0 0 1.3431071596360784 3 27 5 29 2 28 11 44 10 52 13 49 24 422 27 449 26 447 28 452 25 440 6 27 14 54 23 436 1 27 20 407 18 411 8 43 7 34 21 424 9 48 12 48 22 434 16 409 30 490 15 65 29 472
10980 -1.7720949860761446 1.3977219060310702 20.834524376215274 0 0 0 1.5180992500114918 12 27 13 26 14 27 27 423 28 422 29 436 26 425 15 35 6 17 30 457
78 -1.3614747551251414 1.4700220718554289 20.574103057882116 0 0 0 0.92629566970947086 14 46 11 35 13 42 29 459 28 440 10 43 25 430
11611 -0.96685930460978042 1.7102839031835804 20.957825722329371 0 0 0 1.8494753320789608 8 60 14 83 12 73
10979 -2.0653245401111326 1.2226173731535948 18.981787001615334 0 0 0 0.90792491513257545 11 21 13 24 30 456 10 28
11134 -0.7807834460887626 1.7836082682194476 16.40803270772042 0 0 0 0.99132282911713443 4 71 23 531 19 487 2 62
10344 -1.9714083114508323 1.8013575794321459 21.610762979978784 0 0 0 1.3354781855569346 2 44 26 501 24 462 28 499 27 497 4 56 10 90 21 459 25 481 20 439 5 52 8 74 1 44 3 49 7 61 12 80 13 89 18 443 23 477 9 78 11 84 6 69 19 450 15 116 14 96 29 529 22 472 16 432 30 566
11108 -1.593860648164517 1.6964258534398435 20.880149280613178 0 0 0 1.5563094267508315 6 58 18 429 14 90 29 521 4 47 21 447 30 552
86 -1.510577757402753 1.5833111903399923 20.190342359608902 0 0 0 1.3441821831710112 12 67 25 464 21 441 22 451 4 41 2 35 13 74 28 477 26 480 11 65 24 444 9 64 14 80 17 415 23 448 1 32 6 47 16 414
1034 -1.6365950596582792 1.5408439625117454 20.456476449763663 0 0 0 1.5200580730650362 9 51 24 428 26 461 30 506 11 49 14 64 20 414 15 78 23 438 7 37 22 440 5 33 6 34
11029 -1.3296745377534129 1.629410741921012 20.387434083365982 0 0 0 2.9195120818934361 13 75 29 507 27 484 30 536 1 39
7 -1.4795417182259851 1.4937201345616711 21.20350599353176 0 0 0 1.3250883976863757 9 35 13 38 3 23 26 435 12 36 21 413 22 421 24 406 25 427 10 39 11 31 27 432 28 433 14 41 23 418 18 404 6 20 7 25 19 419 30 474 15 50
10988 -1.2631450556566253 1.4976461296892094 21.144719053787409 0 0 0 2.5838904686462731 12 35 15 47 10 42 27 433 30 470
10751 -2.0025573853538212 1.6905776342860983 21.975500831966723 0 0 0 1.6328781243080417 28 468 13 62 27 465 4 40 26 470 11 58 20 422 10 62 12 60 14 68 29 486 16 417 15 81
11086 -2.0125670384316772 1.3816206633013524 18.31504527250388 0 0 0 1.9183555695035188 9 58 11 60 14 84 15 96 1 30 7 41 10 68
26 -1.4238687038765947 1.6876835946605131 20.222323166871664 0 0 0 1.8366171166733438 13 90 28 502 26 502 3 45 5 47 10 87 11 85 12 81 25 484 27 499 4 52 18 440 14 98 2 41 9 79 15 121 24 466 29 530 1 41 19 446 21 456 23 476 20 437 8 73 17 425 30 571 16 429
10375 -1.8513406541023654 1.4670896050954252 21.054296522246609 0 0 0 1.4163328106017001 13 35 29 453 30 471 27 430 28 435 15 48 14 40
11053 -1.2128563697749366 1.7350724998917524 20.130275977668546 0 0 0 2.3496822729889733 2 48 10 97 24 472 26 511 9 85 14 107 28 509 29 556 13 95 4 58 15 128 19 452 25 493 27 514 23 485 30 582
11010 -1.6942317009966821 1.5224123724426997 20.21100123202816 0 0 0 1.7087529843581455 11 53 28 462 15 76 13 59 26 463 27 460 16 410
10342 -1.7368093639274869 1.6831022896745398 20.495067669449647 0 0 0 1.3072892446120472 9 72 11 77 12 78 13 87 28 497 10 83 24 457 25 478 29 527 14 95 26 496 27 494 6 60 30 561 15 117
11050 -0.94198013126174596 1.7365015515407567 20.276323793600245 0 0 0 2.107855923566015 10 92 15 125 8 76
11007 -1.3455266712985261 1.523461459486035 20.297005383821951 0 0 0 2.2810640949129639 11 46 22 438 24 425 26 455 27 453 28 457 15 72 20 411 19 426 9 49 21 428 6 31 30 498
10339 -1.8772162096104579 1.7585441492589295 21.458029536316605 0 0 0 1.1231565133667771 9 71 13 85 26 494 28 492 24 456 27 493 10 82 14 93 25 477 8 68 12 77 15 110 23 467 29 522 30 554
6351 -1.7456155186574323 1.4371725614239073 20.530822533008166 0 0 0 1.2987699749002108 13 39 10 40 24 411 3 22 28 438 26 436 6 23 9 36 11 33 29 456 23 423 25 429 8 32 22 422 21 415 30 482 15 58
54 -1.9105498431377241 1.6265805197131793 21.116956421081646 0 0 0 1.3176189817988051 2 34 27 468 13 66 26 473 28 470 3 34 5 39 24 437 25 458 9 59 11 59 12 63 19 429 10 66 23 447 14 70 18 419 8 51 6 43 7 42 21 438 29 490 22 445 15 85 30 518
60 -1.3377054311965519 1.7639096380469588 20.352590144990049 0 0 0 1.1715241365022777 26 513 28 516 13 100 10 100 11 90 12 93 29 559 24 475 25 498 14 109 15 130 8 79 23 488 6 77 27 520 30 585
11052 -1.2624833195827301 1.7703339860019904 20.465149389107925 0 0 0 1.7623657726991651 10 96 11 87 12 90 24 471 26 510 28 514 29 555 3 51 5 53 25 495 9 84 22 477 18 446 23 484 6 73 7 65 21 465 27 519 8 81 13 98 15 127 17 437 14 114 16 434
66 -1.6520630932163247 1.5224182183484749 21.640853801682919 0 0 0 1.6433882638173012 9 37 25 426 2 24 26 434 10 38 11 30 12 33 21 414 27 431 13 37 20 400 30 479 18 403 1 21 3 24 8 33 19 418 23 420 4 31 24 405 14 43 6 21 7 27 22 420 5 24
15 -1.3830951702196943 1.5585087412549365 20.157827108622641 0 0 0 1.6700475902482474 10 61 25 456 28 471 26 471 12 61 13 63 5 38 11 56 20 423 14 73 24 434 27 466 15 89 29 492 30 522 6 38
11628 -1.3517545554407804 1.7062620602949281 20.391783452932657 0 0 0 1.2235567542861001 3 46 26 499 5 49 13 91 6 64 9 77 12 83 24 461 25 480 29 533 10 89 28 503 22 467 14 100 27 501 11 82 2 42 4 54 18 434 8 70 23 471 19 448 15 123 30 574 7 59 17 426 20 438 21 451 16 426
83 -1.6097910749002644 1.4805625630165955 20.216544075207047 0 0 0 1.5031842962474131 12 45 10 50 25 438 11 43 24 420 9 46 27 445 21 422 4 36 8 42 23 434 15 70 6 30 29 476 26 448
46 -1.764006015775694 1.4134667538343786 20.696419618131294 0 0 0 1.654215928770171 5 21 12 31 23 416 1 18 26 429 10 34 24 399 25 423 29 448 20 398 14 35 9 28 11 25 15 44 8 27 2 21 4 29 7 22 19 415 22 416 27 427 17 397 30 466
11038 -0.92046453468790224 1.8063507961127208 21.573845436587824 0 0 0 2.0286379862994051 3 42 15 112
16 -1.6700513744966901 1.5774407439733806 20.335182661101744 0 0 0 0.94417067372013896 12 64 25 462 26 474 13 67 27 469 28 473 10 67 11 61 24 439 14 76 22 449
11084 -1.2512976584763853 1.4661332350338674 20.19024698741794 0 0 0 1.4409492893073459 14 50 15 62 8 36 18 410
3235 -1.6782194894954712 1.5160189482421087 20.510670416466187 0 0 0 1.705637640212706 21 425 13 53 12 50 26 453 29 475 27 452 14 59
53 -1.251148711693334 1.6070740226359281 20.355008973113193 0 0 0 1.6744684069855458 12 68 1 33 13 69 3 36 26 478 18 421 6 48 9 61 22 448 28 476 27 477 4 44 24 440 2 36 7 47 23 445 19 434 21 444
51 -1.6724914220077751 1.5447370267774749 20.419428904371681 0 0 0 1.5396939870701054 12 58 10 60 9 54 11 54 21 432 13 60 24 429 25 452 26 464 29 485 27 462 28 463 22 439 14 66 15 77 8 47
11612 -2.0544901437975698 1.5078140145801102 19.125106723551994 0 0 0 1.5308796223951608 8 63 14 92 12 76
11111 -1.9417730037630381 1.7495431489661886 20.78221139756451 0 0 0 1.8063287056647883 6 71 18 445 3 50 19 451 25 490 10 93 12 86 21 463 27 506 4 57 23 479 1 43
7635 -1.2570999468627042 1.549515593343354 20.40514878195885 0 0 0 1.6609628390649529 12 54 13 55 10 59 3 30 28 461 11 50 14 63 24 426 25 447 9 53 2 29 1 28 6 36 27 458 29 479 15 75 7 40 8 46 18 414 5 30 22 442 23 440 17 409 30 501
3193 -1.506670820336844 1.5494229179186934 20.11725889082399 0 0 0 1.7676349228968729 10 63 25 455 13 64 28 469 9 57 26 469 5 37 20 420 14 72 15 88 30 521 8 50 29 491 11 55
33 -1.7474697496211584 1.7525381544797931 20.470645807017242 0 0 0 1.2297206907570553 9 87 26 509 2 51 5 56 24 474 25 497 27 518 28 512 4 61 11 89 29 554 7 67 8 82 23 487 1 46 3 55 10 99 12 89 13 97 19 457 21 468 22 476 15 126 18 449 20 444 6 76 14 113 16 437 17 438 30 580
80 -1.6629330470846224 1.5665367441370355 21.696977602390934 0 0 0 1.1820808965124203 24 413 11 36 27 439 12 41 9 42 25 433 26 440 10 45 18 409 23 429
11614 -2.0028876997353557 1.8738924763842995 21.584444237849212 0 0 0 1.9498431847572557 14 115 10 102 29 558 6 81 8 84 25 501 12 94 27 523 21 472
11140 -1.284244962066307 1.4766833467032778 19.682867002277288 0 0 0 1.9042064789308695 26 456 27 455 11 47 14 62 12 52 10 56 25 446 29 480 30 500
10982 -1.3075907603040617 1.4353226971177167 20.865974671064659 0 0 0 1.3915354387067298 4 28 9 29 12 29 13 28 20 397 25 418 27 424 28 425 29 442 1 17 10 32 22 415 5 20 7 21 8 26 23 415 3 20 6 18 15 38 18 399 19 414 21 409 24 397 2 20 11 24 14 31 17 396
3847 -1.2457785057673414 1.57335842874385 20.275037376817608 0 0 0 2.0635061345482528 12 62 26 466 5 36 10 65 11 57 25 457 4 38 20 416 21 433 27 467 15 90 19 427 14 75 30 523
6 -1.367063302332036 1.4507256239057735 20.739186678907078 0 0 0 1.3805516332701526 13 34 26 431 14 38 9 32 11 28 12 32 24 402 25 425 28 430 10 37 27 429 15 46 8 28 23 419 21 410 29 450 22 417 30 469
10994 -1.7418849428082073 1.492320990054987 21.179098008922708 0 0 0 1.1863830632844341 13 40 14 45 29 457 15 56 28 436 30 478
50 -1.7705827651346524 1.5586161895231279 20.825190409456859 0 0 0 1.7766642294200932 11 52 13 54 9 50 3 29 24 427 26 460 27 456 28 458 29 478 10 54 12 55 20 413 25 441 14 61 15 74 18 412 30 499 21 427
11072 -0.94195540762022734 2.0974632725730613 20.696896247010343 0 0 0 0.25500518614803863 10 111 15 149 9 97
11625 -1.2632087476002907 1.5130951794428971 20.399718180480995 0 0 0 1.6421555532788272 29 469 30 494 12 46 13 51 20 408 28 454 14 57 27 446 15 69
10959 -2.0437321538020776 1.0862151038440859 18.775477368750479 0 0 0 2.2880379570195788 11 8 13 11 15 12 8 13 9 11
11627 -1.2827553424958815 1.6100787801596184 20.084080095662891 0 0 0 1.5116296506107481 23 454 30 543 29 513 10 73 13 76 22 456 26 483 11 70 14 86 24 448 25 470 28 481 9 67 27 483 15 103 7 50 8 57 12 72
17 -1.3288033749244168 1.5873473628265082 20.303272753450148 0 0 0 1.0325448654965823 10 64 13 68 12 65 25 460 29 495 28 474 14 77 26 475 11 63 27 472 15 91 23 444 30 524
11039 -2.0960305668268813 1.5261680256880521 19.226895371524591 0 0 0 2.4010349791604928 10 79 13 84 8 66 15 113
11130 -1.5438142990112376 1.6859212304820361 20.233305951245431 0 0 0 1.1052508186649979 4 51 23 475 8 72 10 85 25 482 5 51 7 56 19 445 22 469 24 464 6 67 20 436 21 454
11631 -1.1525012537413959 1.7409780931212875 20.128714289295299 0 0 0 1.439915525268175 19 455 30 583 2 46 8 78 21 466 6 74 20 442 15 129 7 66 27 515 22 478 26 512 5 54 29 550 13 99 9 86 10 98 11 88 12 91 28 513 24 473 25 496 14 111 4 59 23 486 17 435
11613 -0.98572434464044323 1.8273375444422113 20.870171391864265 0 0 0 2.6843137461932542 8 83 14 108 13 96 23 490 25 500 21 470 6 75 27 516
10981 -1.3301107947026505 1.2973758786286491 19.591123836429684 0 0 0 2.5673754113714899 26 418 30 458
11623 -1.8036477805867532 1.6492228600243319 20.954119834878192 0 0 0 1.2604909200292063 2 37 26 481 13 73 14 79 28 479 4 45 5 42 10 71 12 69 24 446 25 465 27 479 9 66 11 67 3 38 29 502 20 427 1 37 15 93 7 48 8 54 23 452 21 443 18 426 19 435 22 454 30 528 6 51
11067 -0.95618739106907225 2.0282786245171636 20.410720292420102 0 0 0 0.378382806913244 10 108 15 142
45 -1.6754513950996965 1.3802772641955001 20.471354823157633 0 0 0 2.2227441530504612 9 27 14 33 24 396 23 413 26 427 10 35 15 37 12 28 11 23 30 462
11026 -1.5049605960494004 1.58106061873166 20.110189296485288 0 0 0 1.3430170311693583 19 433 30 532 8 56 15 97 29 503 3 35 18 422 7 45
11104 -0.92276218071399296 1.4914170449626742 20.883651517668046 0 0 0 0.097414539160301628 7 24 15 52
11622 -1.6534359179876217 1.6164904478608526 20.185728438978476 0 0 0 1.0204361505679815 9 69 25 473 26 489 13 80 10 77 11 74 12 75 24 450 27 491 29 516 28 487 4 46 21 445 19 437 7 51 8 61 23 461 1 38 15 108 20 429 30 548 22 459 2 38 3 39 5 45 14 89 6 54 18 427
11117 -1.9044315521070148 1.0584382755461306 17.515058903956717 0 0 0 1.6346675319950175 2 14 8 17 12 21 6 14
11618 -1.579050607791193 1.5212612762820388 20.209575627855827 0 0 0 1.605219137823469 22 441 30 511 15 80 29 484 12 53 10 58 9 52 4 37 21 429 27 457 28 460 5 34 13 57 14 65 8 48
11617 -2.068971776987552 1.4554309758439825 18.824166674585904 0 0 0 1.7870171453670991 11 68 13 77 9 65 5 41 15 105 1 36 24 447 2 33 8 58 7 49 18 423 6 50
11116 -1.9190694815040519 0.89816960814655133 17.687018493022826 0 0 0 2.1878776071149924 2 10 8 8 10 8
11022 -1.6812471449521373 1.6266977144556616 20.809842216939796 0 0 0 1.343495554987453 6 46 30 525 5 40 15 92 29 498
11017 -1.576074941110752 1.5405511610080642 20.162077909832927 0 0 0 1.5702509575628849 14 71 25 453 15 86 24 431 26 465 23 443
10328 -1.4450156549877169 1.4610496655272009 20.788570567912007 0 0 0 1.0249925532363875 5 23 14 42 29 455 1 20 4 32 20 401 15 51 8 30 17 402 30 475
6988 -1.9644539646769377 1.5080811638584051 21.934965885932645 0 0 0 1.4453405064223601 26 430 10 36 11 27 12 30 23 417 25 424 2 22 20 399 27 425 1 19 5 22 18 402 8 29 4 30 3 21 9 31 14 32 24 401 19 417 21 412 28 426 13 32 6 19 7 23 22 418 15 39 29 444
11015 -1.7380852145109935 1.5723364424249151 20.605298599531402 0 0 0 0.99362727110762561 14 69 29 488 15 83 6 41 30 516
11626 -1.3825139610645156 1.5808647081749283 20.08870401526778 0 0 0 1.5506066116322794 19 431 30 533 18 420 1 31 3 33 15 98 21 442 22 447 14 81 10 70 12 70 13 72 28 480 26 482 29 504 4 42 9 62 11 66 24 445 25 466 27 476 16 413 2 32 17 413 8 53 23 449 7 46 6 49
7618 -1.9255213329308409 1.3850311622237685 22.114235877273885 0 0 0 1.010806350723048 24 390 11 16 12 18 9 18 23 410 28 409 25 405 10 21 5 15 19 407 18 389 20 393 8 20 1 13 2 18 13 15 21 403 27 409 3 16 7 15 22 409 29 418 6 12 26 413 15 15
11011 -1.657630794856356 1.5090619265450207 20.142944472451891 0 0 0 1.7845170910330872 23 441 30 505 5 31 7 36 20 410
