# 3D point list with one line of data per point:
#   POINT3D_ID, X, Y, Z, R, G, B, ERROR, TRACK[] as (IMAGE_ID, POINT2D_IDX)
# Number of points: 145, mean track length: 11.689655172413794
7477 -2.5139473855695642 2.323055916117188 19.271557174778565 0 0 0 1.9898744778570785 17 417 19 435 23 453 16 419 6 52 15 101
7811 -2.064266897471005 2.3254071504079312 19.236147647608746 0 0 0 0.87577559504471192 10 65 14 75 29 496 30 523 15 90
7480 -2.0207591548731676 2.4597670727311631 19.482085986753091 0 0 0 1.4826602365878239 13 86 18 431 24 458 28 496 3 43 9 73
7814 -2.1470338546458319 2.3745858752200655 19.390297949667882 0 0 0 0.78417128016804449 13 75 29 507 30 536 15 100
7696 -2.1393783474345729 2.738688813554389 19.206308632480258 0 0 0 2.1272145756653926 30 640 15 148 6 86 8 90 16 460 23 515
7466 -2.7106346095988716 2.4021142580689201 20.833769460534842 0 0 0 1.2181998386817972 8 44 20 410
7703 -2.9051915792822549 2.6711587498306035 20.901632724193121 0 0 0 1.6870813229529793 29 548 25 501 12 88 10 102 14 106 6 81 27 517 21 472 23 492
7704 -2.4485455400332974 2.7273785839003346 19.986976229931759 0 0 0 1.5561903773402359 5 65 29 582 14 118 27 543 12 98
7712 -2.5317178651403411 2.4929617706720508 19.072047044904508 0 0 0 1.7262669718602583 7 70 13 103 22 487 5 63 11 95 26 526 9 91 24 484 20 455 15 134
5875 -2.4149175938019418 2.2163064507861443 19.676196076938034 0 0 0 1.024558799953972 13 37 14 43 28 439 29 458 30 479 15 54
7715 -2.5902068906346356 2.6656929328631804 20.053427600168739 0 0 0 1.5802422235718696 4 66 19 468 30 601
7732 -2.7262868735473815 2.2918571783348924 17.473677608036713 0 0 0 0.90905880591962551 2 56 4 65 10 105 5 64 7 72 3 60
7758 -2.1635380344918858 2.4198421751197201 19.202578771927008 0 0 0 1.1456018856106103 8 70 9 77 5 49 12 83 26 499 6 64 4 54 20 438 21 451 25 480 13 91 11 82 23 471 24 461 22 467 27 501 3 46 10 89 14 100 28 503 30 574 18 434 29 533 2 42 16 426 7 59 19 448 17 426 15 123
7759 -2.1867328456732893 2.3066183109291729 19.057213687376716 0 0 0 1.5550473669562901 2 32 3 33 5 38 7 46 26 482 28 480 9 62 10 70 8 53 21 442 13 72 16 413 17 413 11 66 12 70 14 81 24 445 29 504 4 42 19 431 23 449 1 31 20 423 27 476 22 447 6 49 25 466 30 533 18 420 15 98
7764 -2.6575500707246982 2.3061579294113552 19.52729617230743 0 0 0 1.3312419017854578 7 42 27 468 12 63 17 412 2 34 21 438 22 445 19 429 29 490 16 417 9 59 6 43 4 40 24 437 25 458 26 473 13 66 23 447 28 470 14 70 20 422 5 39 11 59 3 34 8 51 10 66 18 419 15 85 30 518
7767 -2.1101019026224139 2.1735029116125326 19.482175878676507 0 0 0 1.441045321809066 2 20 7 21 8 26 10 32 13 28 14 31 27 424 28 425 22 415 20 397 29 442 18 399 23 415 12 29 21 409 9 29 24 397 4 28 25 418 5 20 6 18 17 396 16 396 19 414 3 20 15 38 30 460 11 24
7768 -2.0827840089761307 2.4800791741374955 19.229051150103281 0 0 0 1.7424628811700451 9 84 3 51 6 73 5 53 26 510 11 87 23 484 24 471 25 495 22 477 10 96 12 90 21 465 17 437 16 434 2 48 18 446 4 58 19 452 20 440 7 65 8 81 27 519 28 514 14 114 13 98 29 555 15 127 30 581 1 45
4595 -2.5646753169898244 2.3331352915130918 19.446861909851265 0 0 0 1.0827989275264738 8 54 9 66 6 51 4 45 11 67 24 446 25 465 26 481 1 37 13 73 23 452 22 454 20 427 3 38 5 42 10 71 12 69 27 479 14 79 28 479 18 426 29 502 2 37 7 48 21 443 30 528 15 93
7772 -1.7187242535340614 1.7919120577711427 19.717401073444201 0 0 0 0.25951353538340943 7 4 10 3
5935 -2.6427764486406744 2.4642299468009652 19.739663773138236 0 0 0 1.185822139704054 9 82 24 469 26 504 27 502 28 500 29 536 14 101 15 119 30 568
7465 -2.6959649152168041 2.2387439835838654 19.764015553070159 0 0 0 0.92998300007871837 3 27 4 34 14 49 19 424 29 463
7781 -2.5523305501688385 2.0328319075968446 19.608152949798889 0 0 0 1.0994975458541256 8 16 11 11 12 13 23 407 29 417 30 431 9 19 15 16
4608 -2.2077492578440672 2.4183477341790192 19.223968724163612 0 0 0 1.1639347302959164 10 88 5 48 12 82 4 53 27 500 22 466 7 58 19 447 14 99
7705 -1.9904620975123151 2.7346644283485828 18.775663588005013 0 0 0 1.6958958120275827 5 68 29 613 7 76 22 507 20 473
7784 -2.5072497152558433 2.0409486091699596 19.565895955735979 0 0 0 0.95812491798393606 11 17 12 19 14 15 27 410 29 419 30 436 26 414 15 22
7450 -2.6591486146113406 1.6814734223356285 17.51282030941184 0 0 0 1.5233630992273508 3 10 7 6 5 11 12 8 2 13
7792 -2.5268284069140527 2.111446671084547 19.426697153965758 0 0 0 1.3127550808607309 12 27 13 26 14 27 27 423 28 422 29 436 30 457 15 35 26 425
7718 -1.1191927625305522 2.2097643332289403 15.667837191200375 0 0 0 0.72870858948718575 1 47 16 442 19 465
7797 -2.0709856906777171 2.210474708982018 19.477345066378 0 0 0 0.87915871996402151 10 42 15 47 30 470
7296 -2.5349801093556468 2.25927209087317 19.427438961729795 0 0 0 1.9184489482683493 10 54 25 441 13 54 20 413 27 456 9 50 12 55 3 29 26 460 21 427 11 52 24 427 29 478 14 61 28 458 30 499 18 412 16 410 15 74
7798 -2.2891383200524009 2.1432218900791136 19.154358353422261 0 0 0 0.41714743380992947 12 34 30 473 15 49
4625 -2.1544292699619949 2.4764203402642986 19.197383285430956 0 0 0 1.1828831567399516 8 79 12 93 26 513 6 77 10 100 13 100 11 90 27 520 14 109 25 498 24 475 23 488 28 516 29 559 30 585 15 130
7804 -2.0746044140822297 2.2537389636776095 19.273367930759502 0 0 0 1.1649142920479778 12 46 13 51 14 57 27 446 28 454 29 469 30 494 15 69
7763 -2.35737309490368 2.0158792376287429 19.717953694702683 0 0 0 1.1753915212989905 9 12 4 17 5 13 25 399 26 407 6 7 10 14 11 7 12 9 17 385 18 385 29 411 28 397 19 398 3 11 13 10 20 385 21 398 16 385 2 15 7 8 24 384 22 401 23 401 27 399 14 8 15 9 8 12 1 10
7842 -2.0710511011619062 2.4390024804054495 19.197639963629566 0 0 0 1.7432056044387716 6 65 18 435 16 427 10 91 12 84 14 103 26 505 29 539 13 94 25 485 27 504 28 507 21 457 15 124 30 576
7805 -2.7197763484816493 2.3076469978813434 19.862646728340131 0 0 0 1.2735622659074417 6 33 10 57 11 51 14 60 25 450 26 459 15 71
7844 -2.6032657515309814 1.4882449774212987 16.961775740415945 0 0 0 0.32253292782027848 11 0 14 0
7807 -2.8701010493896075 2.1281240433928734 18.743415710169192 0 0 0 2.0091830864881763 10 55 15 73 13 58
7766 -2.6818477602346391 2.1848378983552963 19.884296607418658 0 0 0 1.4442340721850182 2 22 3 21 5 22 7 23 29 444 20 399 9 31 10 36 1 19 23 417 24 401 25 424 26 430 19 417 4 30 11 27 12 30 13 32 22 418 6 19 21 412 17 399 18 402 28 426 16 399 8 29 14 32 27 425 15 39 30 461
7845 -1.9512785320029591 1.9091147594805888 21.568541849542409 0 0 0 1.7834892741593331 5 4 8 2 4 6 9 2
7853 -1.7884968712505558 2.4769038868248758 19.188915479647971 0 0 0 1.7240159209865606 8 76 10 92 15 125
7816 -2.7061089669935217 2.0538310697412556 17.497321779031509 0 0 0 1.1709569652615726 3 32 4 43 14 92 2 33 19 428 10 75 12 76
7856 -2.9371300130715348 2.6162119372739889 19.048260542058035 0 0 0 1.2935426006300479 12 102 15 146
7819 -2.8823516539267851 2.252006087279812 18.7815468687192 0 0 0 1.9572771063624064 10 79 15 113 13 84 30 558
638 -2.298896084710655 2.2677394176113519 19.062957807117552 0 0 0 1.9639596300508553 11 55 25 455 26 469 28 469 10 63 8 50 13 64 14 72 9 57 29 491 12 59 15 88 30 521
7778 -2.7989024609647211 1.7987460119186389 18.358402406854616 0 0 0 1.7315762522436335 5 12 11 8 9 11
7857 -2.3489171911471307 2.3641962217784926 19.245234889270236 0 0 0 2.0972824370364207 4 47 30 549 6 58 21 447 18 429
7820 -2.9409258474558229 2.5113835085101854 20.244422324932351 0 0 0 1.7215149558842218 9 81 11 83 13 92 24 468 26 503 15 115 7 64 28 505 22 474 30 564
7700 -2.8343282816461479 1.8110974823843302 18.724799249251639 0 0 0 1.5319382395990691 6 6 18 381 10 12
7867 -2.0684344049165522 2.2774769679857823 19.209960557738459 0 0 0 1.6512832814933047 29 479 10 59 9 53 28 461 8 46 12 54 13 55 3 30 11 50 24 426 25 447 14 63 27 458 2 29 22 442 17 409 18 414 15 75 20 408 26 454 30 501 5 30 1 28
3525 -1.9816382589895953 2.4650949002161306 19.065944939011928 0 0 0 1.1992892126543273 9 86 8 78 10 98 12 91 6 74 14 111 23 486 26 512 11 88 20 442 25 496 28 513 13 99 27 515 22 478 5 54 21 466 24 473 29 550 19 455 30 583 4 59 7 66 17 435 2 46 15 129
7858 -1.7181145286075421 2.6506413525103003 17.67237144046873 0 0 0 1.1627153672531914 4 71 30 678 2 63 21 501 28 596
5353 -2.1439599202551087 2.2174171437978987 19.111864551434941 0 0 0 1.0424164726684881 13 48 28 451 14 55 29 473 8 40 15 66 30 492
7710 -2.5364645871972549 2.0525441570289371 19.692125081467736 0 0 0 2.2482444643413682 7 16 13 13 22 405 14 13 28 406 10 23 9 22 21 404 24 392 25 407 6 13
5873 -2.6004465715631171 2.1730009201092124 19.552479042574216 0 0 0 1.2124329950342063 13 35 14 40 27 430 29 453 28 435 30 471 15 48
7789 -1.9088532053809473 2.2520888815653746 20.899724192532705 0 0 0 1.6137557341718591 3 13 8 21
7868 -2.0708408812499202 2.3665571204417843 19.206830578988637 0 0 0 1.8936183023758262 9 68 8 55 5 43 10 74 26 486 21 444 1 33 20 428 23 455 28 482 29 514 14 87 11 71 17 418 24 449 25 469 12 74 16 421 27 490 22 457 15 104 6 55 7 52 18 428 3 41 30 544
7852 -2.9218703895730482 2.4984996970568374 20.582130672397806 0 0 0 0.84787872734800063 21 449 15 99 6 57 30 534
6516 -2.0188108085628609 2.5493460170171027 19.961199892095994 0 0 0 1.0019953094202179 7 62 11 81 26 500 22 471 9 80 24 467 17 430 2 45
671 -2.232118428882647 2.40794597166974 19.163305610520645 0 0 0 2.0778393934593198 10 87 9 79 8 73 12 81 26 502 13 90 4 52 14 98 28 502 25 484 29 530 11 85 27 499 23 476 24 466 2 41 30 571 15 121
7869 -2.7080456710194971 2.4478028686489686 19.719242588342038 0 0 0 1.367485561172646 30 566 18 443 23 477 20 439 1 44 7 61 16 432 19 450 22 472 3 49 5 52 9 78 10 90 26 501 8 74 29 529 6 69 13 89 14 96 17 434 24 462 4 56 28 499 2 44 21 459 25 481 27 497 11 84 12 80 15 116
7832 -2.8398683614583149 2.3917508861979297 18.087726126416182 0 0 0 2.4374518519300707 9 92 11 99 6 84 2 57 4 68
7850 -1.7688093468185484 2.0914490139217965 18.62601064534417 0 0 0 1.676047616489154 13 33 15 42
7709 -2.2885611715254917 2.0685165479473171 19.661160183200813 0 0 0 1.4829069904572181 7 13 13 18 6 10 9 17 10 20 12 16 24 389 25 404 27 407 11 14 28 408 4 19 15 18
7787 -2.2016218835154695 2.0866707086127727 19.526300759059371 0 0 0 1.3599244923717775 8 22 9 23 10 25 11 19 12 22 13 20 14 23 22 410 23 411 25 409 26 415 28 413 29 424 15 25 27 418 24 393 30 439
7866 -2.5289839758170345 2.2321113907774128 19.483705422243336 0 0 0 2.3347371738386231 6 28 22 430 20 405 2 27 3 26 17 407 14 53 30 491 29 468 15 67 1 26
7671 -2.1957565040152587 2.5268711298808784 18.324523987276951 0 0 0 1.497365575296822 3 61 9 93 11 101 26 543 18 461 20 465 22 497 28 554 13 107
6916 -1.8227686880291416 2.4082947881857626 20.241683160561998 0 0 0 2.1307897929152744 11 42 12 44 6 26 10 51 29 470 3 28 9 47 1 25
4601 -2.4398530108773473 2.3266687946163445 19.115067047101093 0 0 0 1.0843639665250984 9 69 4 46 13 80 11 74 23 461 24 450 25 473 26 489 3 39 1 38 7 51 27 491 2 38 5 45 6 54 10 77 12 75 22 459 8 61 17 422 18 427 29 516 16 422 19 437 20 429 21 445 14 89 28 487 15 108 30 548
7840 -2.5639829159296426 3.3101565452588302 23.141193989907823 0 0 0 0.48123313554639086 11 102 23 516 26 548
7761 -2.3592750545138035 2.0599419725830628 19.636787771440424 0 0 0 1.5829580121456761 28 407 14 16 19 404 29 420 9 20 25 403 26 411 7 12 10 19 11 13 12 15 13 17 27 406 22 403 24 388 16 389 15 17 4 23 30 432
3560 -2.446221582889462 2.2484553822630016 19.183298564765192 0 0 0 1.664107708138252 10 60 9 54 21 432 11 54 24 429 8 47 23 441 6 35 12 58 26 464 13 60 14 66 29 485 25 452 28 463 27 462 22 439 15 77 7 36 30 505
7668 -2.3822758387033547 2.3871502923899399 19.110246574189251 0 0 0 0.71699786384407072 6 61 19 444 18 439 24 463 21 453
3562 -2.4018809679732591 2.209665590544414 19.712094438815626 0 0 0 1.406812683330191 24 405 6 21 3 24 23 420 4 31 7 27 2 24 5 24 22 420 17 401 18 403 16 402 19 418 20 400 21 414 10 38 11 30 25 426 26 434 9 37 27 431 8 33 1 21 12 33
5945 -2.0499740290933608 2.4889104787994318 19.27396276860178 0 0 0 2.2700077445383706 9 85 10 97 26 511 28 509 24 472 27 514 23 485 25 493 3 53 13 95 18 447 30 582 14 110 29 556 15 128
7841 -1.8570355680550277 2.8914345077664554 19.953860495753013 0 0 0 1.048634010567663 10 111 12 103 9 97 5 66
7762 -2.6361398030833261 2.0769112654509874 19.964072169805554 0 0 0 1.3140060426243305 9 18 24 390 25 405 26 413 11 16 12 18 27 409 10 21 13 15 6 12 5 15 18 389 28 409 8 20 29 418 14 18 7 15 21 403 22 409 23 410 4 22 3 16 20 393 17 389 2 18 16 388 19 407 15 15 1 13 30 430
7818 -1.8337904819276984 2.4899153266926795 19.655503794129988 0 0 0 0.051183397077246562 8 65 13 82
7739 -1.8164482352612747 2.1751906177214191 20.518458848617037 0 0 0 1.0809391141584019 4 18 5 14 10 16 1 9
5356 -2.4441079202160552 2.2150625136324984 19.178819674481705 0 0 0 1.3522295583527695 12 50 13 53 26 453 21 425 29 475 14 59 27 452
4572 -2.5225602433716863 2.1267927578316024 19.355640122412566 0 0 0 1.7662511512517718 8 27 5 21 4 29 9 28 10 34 25 423 26 429 14 35 23 416 24 399 6 17 11 25 2 21 7 22 18 401 22 416 19 415 29 448 30 466 20 398 12 31 27 427 17 397 15 44 1 18
4827 -2.1942652864060004 2.341823078441696 19.093282498882377 0 0 0 0.74456690853778706 8 59 28 485 13 78 14 88 29 517 23 458 30 546 27 489 15 107
7828 -3.1313766171792947 3.2420888337277276 24.207039381410727 0 0 0 0.27015516178843824 21 480 14 115
2651 -2.1515477262623861 2.2747907791416035 19.124796628929801 0 0 0 1.57493608799064 28 466 8 49 13 61 14 67 9 56 29 487 19 426 24 432 23 439 30 514 7 39 22 444 27 461 15 82
7865 -2.1730860387294508 2.7461862163078261 19.342132850698654 0 0 0 1.2442736116990685 1 50 15 145 30 637
5410 -2.6756487095022288 2.1985488505232431 19.612862897715708 0 0 0 1.8705037156531705 9 41 23 428 24 414 25 431 26 438 10 44 11 34 22 426 7 28 8 35 30 483 5 25 12 40 21 417 27 436 28 442 20 403 13 41 15 59
2070 -2.0630346187725621 2.3957600250466879 19.163441342501091 0 0 0 2.0425122140810337 5 46 10 81 8 62 28 491 9 70 13 83 14 94 23 465 24 454 25 476 12 79 21 448 4 48 20 433 22 463 27 495 29 523 19 441 2 40 1 40
4571 -2.3226713361521729 2.0816027267795412 19.392678630952215 0 0 0 1.7946921286420752 9 25 5 18 4 26 26 417 11 20 24 394 25 411 7 18 10 26 6 15 17 393 18 395 19 408 8 23 22 412 20 396 23 412 27 419 3 18 12 23 16 392 21 407 13 21 1 16 29 427 14 24 28 415
3569 -2.5327838055973206 2.2160551974451281 19.502863083169988 0 0 0 1.5495611003822858 10 48 9 44 8 38 5 27 19 422 12 43 16 405 26 443 21 420 23 432 24 418 25 436 4 35 11 38 28 447 27 440 18 408 7 30 30 485 13 45 29 461 14 47 15 61
2066 -2.0625936022020999 2.3296350090789457 19.160327143129813 0 0 0 1.6576091077742861 9 61 6 48 4 44 12 68 26 478 28 476 3 36 13 69 24 440 23 445 22 448 27 477 18 421 2 36 7 47 19 434
5396 -2.4146478579867034 2.3746740607198906 19.017519748366198 0 0 0 1.0263507298742629 3 44 22 470 4 55 21 458 5 50 6 66 17 428 7 60 18 438 16 430 2 43 19 443 8 71 23 474 1 42 29 538
4579 -2.0901347696562862 2.227748686029706 19.308035799793494 0 0 0 1.7484559551668692 9 43 5 26 10 47 13 46 4 33 24 415 26 441 11 37 25 434 6 24 8 36 12 42 30 486 7 29 28 445 2 25 19 421 20 404 22 427 18 410 21 419 23 430 17 405 27 437 29 462 3 25 14 48 15 60
6917 -1.8197740609839543 2.5152588967306033 19.999638247289479 0 0 0 2.441443940880466 7 53 11 72 12 73 6 53 3 42 10 78
5414 -2.4890980458956631 2.2258332802559146 19.326846204821802 0 0 0 1.930250271176098 12 49 26 452 11 45 13 50 28 453 30 493 14 58 27 451 15 68 29 474
2898 -2.152108888739205 2.2585375999346566 19.19162073057468 0 0 0 2.3233045725595387 26 455 9 49 11 46 24 425 25 445 6 31 30 498 20 411 28 457 21 428 22 438 5 32 15 72
4576 -2.1652995004756717 2.187126692481062 19.425030477841517 0 0 0 1.3792779201605194 9 32 27 429 12 32 26 431 13 34 14 38 11 28 25 425 8 28 10 37 28 430 24 402 29 450 21 410 23 419 15 46 30 469
5411 -2.4453721677686224 2.199988904695207 19.213917883429708 0 0 0 2.0235973379357888 8 41 10 49 9 45 6 29 25 437 24 419 19 425 23 433 29 465 7 31 22 431 5 28
4560 -2.2659036497400242 2.0871819127716624 19.761385523848315 0 0 0 1.2084853682752656 11 18 26 412 9 21 4 20 10 22 5 16 6 11 12 17 8 19 17 387 18 390 7 14 16 387 2 17 19 405 20 392 24 391 22 407 27 408 23 409 3 14 13 19 14 17 21 401 29 421 28 411 15 19 1 12 30 433
5355 -2.4799934581983676 2.2496547240420477 19.225045535385402 0 0 0 1.8008592950593871 5 31 13 59 26 463 11 53 28 462 27 460 15 76
4607 -2.2754952969992681 2.4265442874180172 19.329315634100272 0 0 0 1.7685991219085158 9 76 21 456 6 63 5 47 3 45 1 41 24 460 23 470 22 465 8 69 17 425 7 57 16 429 19 446 27 498 25 483 28 501 14 97 18 440 20 437 29 532
4891 -2.3905698940500635 2.2279185316802668 19.045429243937683 0 0 0 1.4627359509217348 9 51 23 438 26 461 11 49 6 34 14 64 7 37 24 428 29 483 22 440 20 414 5 33 15 79 30 507
3568 -2.509360124966133 2.1506998158768877 19.273710992154633 0 0 0 1.4261120262166163 8 32 6 23 3 22 26 436 10 40 13 39 23 423 24 411 25 429 11 33 28 438 9 36 21 415 22 422 29 456 15 58 30 482
4604 -2.513579824156511 2.3753629996752097 19.238449256111583 0 0 0 1.4018272890557302 6 60 12 78 10 83 26 496 11 77 13 87 27 494 9 72 24 457 25 478 14 95 28 497 29 527 15 117 30 561
4623 -2.5262393160882253 2.4373901626345122 19.213172847258434 0 0 0 1.0625206264540501 9 87 5 56 4 61 25 497 26 509 3 55 6 76 11 89 2 51 10 99 12 89 13 97 27 518 17 438 7 67 18 449 29 554 28 512 19 457 8 82 24 474 22 476 23 487 1 46 14 113 16 437 21 468 20 444 15 126 30 580
7295 -2.0537148098189504 2.2913346487296904 19.109203011986537 0 0 0 1.8693036557883711 21 433 5 36 12 62 19 427 25 457 26 466 11 57 6 36 27 467 4 38 20 416 7 40 16 411 23 440
7848 -1.4669207884731232 1.4126834859655752 13.821200766250682 0 0 0 0.098054888861308115 9 10 28 420
5391 -2.1707600346816789 2.2252291407076523 19.483666144177448 0 0 0 1.3987818743952898 10 43 13 42 14 46 11 35 25 430 28 440 17 403 29 459
1717 -2.3647481456416894 2.240257390700136 19.118224924573642 0 0 0 1.7102441035787068 10 58 9 52 5 34 21 429 4 37 12 53 13 57 14 65 29 484 28 460 27 457 22 441 15 80 8 48 30 511
977 -2.1826624419095761 2.2761175874122719 19.04590070496014 0 0 0 1.6699312960138057 10 61 26 471 25 456 12 61 13 63 14 73 29 492 28 471 11 56 27 466 6 38 24 434 23 442 15 89 30 522
4825 -2.4162455729497316 2.2498724506079788 19.739023980945429 0 0 0 1.1210741124340191 10 45 24 413 26 440 12 41 11 36 23 429 25 433 9 42 27 439 18 409
4603 -2.6282894845436497 2.4214090897148721 19.685216227517568 0 0 0 1.251710642573179 26 494 13 85 14 93 28 492 27 493 10 82 12 77 25 477 9 71 24 456 29 522 23 467 8 68 15 110 30 554
2646 -2.3880200172005992 2.1966875975683231 19.106304483261216 0 0 0 1.291695342184769 25 438 21 422 10 50 24 420 8 42 23 434 12 45 4 36 9 46 11 43 27 445 6 30 26 448
642 -2.3677946205634379 2.2855132135749332 19.082324914416496 0 0 0 0.94517182561750179 11 62 25 463 26 477 10 69 9 60 24 442 8 52 23 450 12 66 28 475 13 71 7 44 29 499 27 470 22 450 6 44 14 78 15 94 30 527
3565 -2.7001857179843136 2.2578821992730447 19.731810485379338 0 0 0 1.41325807764426 9 48 10 52 6 27 24 422 25 440 26 447 1 27 23 436 11 44 13 49 28 452 14 54 27 449 22 434 29 472 5 29 21 424 18 411 17 408 16 409 8 43 12 48 2 28 7 34 20 407 15 65 30 490
5416 -2.7074409528769041 2.3217739520072169 19.741703462756512 0 0 0 1.5906719060076375 26 470 11 58 27 465 28 468 12 60 13 62 14 68 29 486 10 62
6919 -1.860156685824087 2.7121454516100134 20.025528176047349 0 0 0 2.2183719003748701 7 71 14 116 13 104
5379 -2.4429686214624668 2.1114509346986301 19.26652672197633 0 0 0 1.7645385839737397 9 27 10 35 14 33 24 396 29 445 30 462 15 37
7216 -1.7968059544002279 2.2010303369989437 20.353154563370222 0 0 0 1.5704012541856329 10 18 4 21 12 11 11 10 2 16 1 11 5 17
6381 -2.495349450845016 2.1865391715826701 19.517201243482869 0 0 0 1.2359569324030204 13 40 30 478 29 457 14 45 28 436 15 56
6958 -1.8474410044709326 2.4740291534453629 19.10684386095614 0 0 0 1.1597773546351451 10 94 29 546 25 494 2 47 17 436
7459 -2.7948083630890546 2.0525639291327367 19.074891727025328 0 0 0 1.6969987662196147 4 27 10 31 13 30 25 421 18 398 28 427 19 413
7806 -2.1059844537035621 2.1721666753637598 18.643804671500824 0 0 0 0.27529019143419575 10 53 27 453
5890 -2.0918834627874405 2.2219887448643156 18.877066384207431 0 0 0 1.7166150664100124 11 47 12 52 14 62 26 456 29 480 10 56 27 455 25 446 30 500
7727 -2.6950049180909397 1.838491765538397 17.619595929883872 0 0 0 1.0471120486010714 2 19 4 24 3 15 7 19 10 28 12 26 6 16 14 29
7809 -2.3626957005777447 2.2581658404882403 19.088148274756463 0 0 0 1.8502601986388199 14 71 25 453 15 86 23 443 24 431 26 465
7493 -2.7010656392818921 2.4237412025236322 19.387974817318703 0 0 0 1.8359832042521853 4 57 6 71 8 75 25 490 10 93 18 445 21 463 19 451 27 506 3 50 12 86
7812 -2.8367118773069384 2.1207075005611116 18.324629055375222 0 0 0 1.338296126575715 9 58 11 60 15 96 13 70 6 39 7 41
7496 -2.5340345533567463 2.4163367416289274 18.960085391914042 0 0 0 2.0016799821148021 4 62 5 60 6 78 7 68 2 50 18 448 21 471 16 444 17 441 19 458 22 480 20 447 3 54
649 -2.3012065222142004 2.3205951724807981 19.034883068257745 0 0 0 1.1652065118157948 10 72 26 488 28 484 12 71 25 474 13 79 8 56 11 73 23 457 27 487 5 44
7817 -2.9176277808530586 2.3542926379235407 19.599148167324223 0 0 0 0.40855042300926225 17 424 15 106 2 39
2060 -2.2401967223052162 2.1885251018727292 19.42487515842274 0 0 0 1.354420618766595 9 35 8 30 12 36 13 38 3 23 4 32 11 31 24 406 26 435 27 432 25 427 5 23 6 20 10 39 28 433 18 404 29 455 19 419 14 42 20 401 21 413 23 418 7 25 22 421 17 402 15 51 30 475 1 20
7738 -1.8168710222637527 2.0426452830780386 20.707881191038052 0 0 0 1.5788988238161819 6 5 5 10 4 12 9 8 2 12 1 6
4899 -2.328641165959485 2.3825665753341094 19.024243115937871 0 0 0 1.2225427219506828 4 51 23 475 25 482 22 469 21 454 24 464 5 51 6 67 7 56 10 85 8 72 19 445 20 436 3 47
7822 -2.1946418240542562 2.2981837919005002 18.351332701338375 0 0 0 1.046762199983136 6 62 10 86 23 469 21 455
641 -2.442211425090969 2.275433370695974 19.100017385039024 0 0 0 1.1550311958487545 10 67 26 474 24 439 12 64 13 67 14 76 11 61 25 462 28 473 29 498 22 449 27 469 15 92 30 525
644 -2.3010212234872163 2.2965379588163422 19.073005411450275 0 0 0 1.5579210682746416 11 65 26 480 28 477 21 441 24 444 9 64 4 41 12 67 25 464 13 74 17 415 19 433 1 32 23 448 22 451 20 420 6 47 27 471 16 414 18 422 7 45 3 35 14 80 29 503 2 35 5 37 15 97 30 532
7825 -2.583129355696975 2.5220060591551459 19.564529716544445 0 0 0 1.7398749006158207 9 90 11 93 13 101 24 479 28 521 22 483 26 517 30 590 15 131
7667 -2.857525854978916 2.1708623624521981 18.459759514046915 0 0 0 1.5111323626734425 6 50 7 49 11 68 18 423 19 430 9 65 24 447 17 414 5 41 13 77 15 105
7826 -2.6247762531068934 2.5415895805322584 19.523252894067667 0 0 0 0.88378191953450269 11 94 13 102 24 483 26 524 28 529 15 132 30 595
979 -2.13826333147798 2.3172836854699126 19.197046416507582 0 0 0 0.93953254670326958 10 64 28 474 25 460 23 444 12 65 26 475 13 68 14 77 29 495 11 63 30 524 27 472 15 91
7836 -1.8170119849201878 2.7385814091312342 19.217729870485311 0 0 0 0.53015533733098297 10 108 15 142
7864 -2.8976914945398322 2.4065191577119478 18.716259054302157 0 0 0 3.0961435652309759 1 49 15 135
5359 -2.5068760063445552 2.2722508677519557 19.290861767101667 0 0 0 0.80881296545595449 6 41 14 69 29 488 30 516 15 83
7829 -2.882376175883111 2.359916345668593 18.431293916511851 0 0 0 0.72619451061426632 13 105 5 62
982 -2.0971841112884917 2.3422882310000226 19.078948557819107 0 0 0 1.6537770846968192 10 73 9 67 12 72 13 76 14 86 25 470 28 481 29 513 11 70 23 454 27 483 22 456 24 448 26 483 30 543 8 57 7 50 15 103
