# 3D point list with one line of data per point:
#   POINT3D_ID, X, Y, Z, R, G, B, ERROR, TRACK[] as (IMAGE_ID, POINT2D_IDX)
# Number of points: 282, mean track length: 12.013123359580053
12862 -27.656134766444545 7.152011458930847 127.26022807607603 0 0 0 1.1665437578298128 28 527 29 549 22 530 23 533 26 542 17 498 27 537 18 510 16 513 21 518 24 520 19 518
13199 -2.2036295572538611 0.19789562526069862 16.624252600729001 0 0 0 1.2997118173968722 1 29 7 38 2 30 6 32 9 55 13 56 3 28 12 57
12861 -0.26689829185436892 7.6247901643546996 212.50030523082103 0 0 0 0.77203753275175102 21 514 29 543 30 551 17 492 22 525 23 525 20 500 26 537 16 508 25 526 24 513 27 533 19 512 18 505 28 523
9154 -2.2442073068436676 0.20173511722527046 16.630117355766835 0 0 0 1.7935178164404173 11 49 9 51 23 438 29 483 6 34 30 507 26 461 22 440 24 428 7 37 15 79
13198 -2.2939522548419493 0.18890135526720828 16.731981434840502 0 0 0 1.9904729779061292 1 8 8 13 6 8 11 8 5 12
6817 -2.2550358036798497 0.20326726425490602 16.665842349781261 0 0 0 1.4578421563434307 9 50 26 460 28 458 13 54 24 427 27 456 29 478 14 61 11 52 30 499 15 74 20 413 12 55
12883 -23.664116924287036 6.9231428662638743 107.49232484130906 0 0 0 0.76260827020418775 23 556 29 579 22 557 21 546 20 528 26 572 25 556 24 542 17 524 27 567 19 543 16 540 18 533 28 556 30 597
13197 -2.3022241417155969 0.18651656887230292 16.775723666951404 0 0 0 1.9857887470004481 1 7 7 6 2 13 5 11
12860 -0.94921791296242219 6.8215433354055079 193.22123402946281 0 0 0 1.0798133232131508 21 512 29 540 30 547 17 491 22 521 23 524 20 497 26 536 16 505 25 525 24 510 27 531 18 502 19 510 28 520
13195 -2.2458518956750066 0.21050128502515406 16.640940773532829 0 0 0 1.9942630570270883 23 474 8 71 21 458 22 470 2 43 1 42
12892 -22.580294749724942 7.2648692961521713 106.7093468043895 0 0 0 0.72664722839381346 23 566 22 569 21 559 20 539 26 582 25 569 24 555 17 535 27 577 19 554 16 553 18 550 28 570 29 589 30 610
12857 -21.323130839883081 4.8737156625387144 94.321683337185149 0 0 0 0.82048852930900251 28 511 29 525 22 516 21 508 23 519 20 492 26 531 25 521 24 506 17 487 27 527 19 507 16 501 18 498 30 531
13194 -2.2535367508987481 0.19666490875134149 16.619726342313772 0 0 0 1.1003784394078737 5 22 23 417
13229 -2.2556768369626523 0.21330940545314409 16.65272306151051 0 0 0 1.6608527838914706 3 54 21 469 8 77 1 44 23 482 26 504 9 82 27 502
12520 -2.2683019714655979 0.20778534506678512 16.709796497150339 0 0 0 1.4584784092247145 13 62 28 468 26 470 11 58 27 465 4 40 14 68 12 60 29 486 10 62
13189 -2.2021418599918592 0.19992796350937325 16.609315042909778 0 0 0 1.1241305384908817 11 64 1 34 6 42 7 43 3 31
12852 -3.0165806745657351 0.49714990278164234 22.658720140461078 0 0 0 1.2098573729097011 22 507 29 509 21 501 23 512 20 484 17 480 16 492 18 489 26 524 27 517 25 512 13 88 30 512 28 498
13188 -2.2040136864547608 0.19582673977518353 16.624398786789886 0 0 0 2.2819274538422163 1 25 2 26 10 51 6 26 9 47 27 450 7 32 12 51
12851 -11.967122897342039 2.4247232022801475 56.915916576887135 0 0 0 0.99871789754022111 29 506 30 510 23 510 20 481 25 509 24 494 27 513 16 489 19 495 21 498
382 -2.2487395094997336 0.20307529468793847 16.647567462008706 0 0 0 1.5189251082880386 10 60 24 429 9 54 11 54 13 60 12 58 26 464 14 66 27 462 21 432 6 35 8 47 25 452 28 463 29 485 30 505 15 77 5 31 23 441
13106 -2.2235925526331783 0.2070229811540627 16.591190261347101 0 0 0 2.0154547403686491 17 426 22 467 21 451 24 461 25 480 19 448
12769 -20.835072538753462 -1.5372604249392257 88.65300754693591 0 0 0 0.83916367586880014 28 172 29 185 30 185 22 169 21 166 23 186 20 170 26 172 25 179 24 165 17 171 27 174 19 174 16 171 18 174
12939 20.78841107035656 13.059038951966015 204.59062096743727 0 0 0 0.73648281758467615 21 628 29 657 30 679 17 599 22 635 23 637 20 605 26 646 16 617 25 639 24 619 27 641 18 619 19 621 28 632
13185 -2.2021684240811576 0.21533147894617713 16.617793990465273 0 0 0 3.2308804695611171 7 71 13 104
12511 -2.2469047697869113 0.19879529539124893 16.633932117817011 0 0 0 1.3647499769151645 28 450 30 489 5 28 13 47
13012 -2.2199391341139254 0.20012389047100596 16.589636291735403 0 0 0 1.9865554449018921 14 75 30 523 10 65 27 467 26 466 25 457 11 57 21 433 15 90 12 62 29 496 4 38 16 411 17 409
12833 -8.5150565449856739 2.2337460315613447 142.15798693429002 0 0 0 1.192715642276811 21 452 29 426 30 429 17 445 23 451 20 443 26 439 25 439 24 430 27 426 18 454 19 459 28 420
13170 -2.2235411647166758 0.19486764529217954 16.609306531981161 0 0 0 2.0541683405018287 7 29 15 60 28 445 5 26 12 42 13 46 27 437
13064 -2.2224478953790379 0.19614038611525253 16.59865592752535 0 0 0 1.6354736458227319 21 419 22 427 24 415 4 33 8 36 2 25 23 430
12897 -4.9620001786090677 8.2884562404225015 148.12540279103226 0 0 0 0.88879854123082391 19 563 29 596 30 618 22 577 21 567 23 576 20 546 26 590 25 577 24 563 17 541 27 587 16 561 18 557 28 576
12984 -13.767377108959309 8.6332445143670995 157.00826113380049 0 0 0 0.6051958973974495 22 560 21 549 23 560 24 546 20 533 19 547 16 543 17 526 18 539 25 560 26 575 27 570 28 559 29 583 30 601
13138 -2.2387493685154314 0.19420279792044989 16.632904933327072 0 0 0 2.8186000450426456 12 34 30 473 15 49
12801 -11.921780471241568 -2.8694420152938518 127.51942957824389 0 0 0 0.7870922907923833 29 306 30 308 22 306 21 304 23 303 20 296 26 310 25 302 24 291 27 305 18 297 19 304 28 301
12971 25.058913017753966 16.980773970762424 211.06569141783638 0 0 0 0.73857660287008742 21 678 29 703 30 725 17 650 22 683 23 683 20 649 26 694 16 666 25 684 24 665 27 684 18 667 19 664 28 681
12804 -7.8618931812084751 -2.431243369860197 106.17826333178841 0 0 0 1.4229231311366617 28 307 29 313 30 322 22 315 21 312 23 314 20 306 26 321 25 315 17 314 27 315 16 311 18 310
13141 -2.2811532091418503 0.20748576356363363 16.649232347654742 0 0 0 2.2048922062961243 15 87 9 58 7 41 6 39
12974 -12.827223080642115 20.829582346318936 193.65688363312501 0 0 0 1.0176081678035038 18 671 30 728 22 690 21 685 23 686 20 655 25 687 24 669 19 668 17 655 16 674 26 700 27 688 29 709 28 685
12973 7.2435666409053887 18.023968926691833 188.52885983857936 0 0 0 0.9898454776431197 22 689 21 684 23 685 20 654 26 699 25 686 24 668 27 687 17 654 19 667 29 708 16 673 18 670 28 684 30 727
12972 6.8906078968172366 20.980412063069892 223.45939293314626 0 0 0 1.0655523674148291 29 706 22 686 21 680 23 684 26 697 25 685 24 666 17 652 27 685 16 670 18 669 19 665 20 652 28 682 30 726
12970 -7.9472089114603213 16.171375773451228 175.84628298489702 0 0 0 1.385800989902185 29 695 21 671 22 675 23 674 20 642 26 689 25 676 24 657 27 677 19 658 18 658 17 641 30 717 16 659 28 673
12969 -20.926530207855972 12.629885169096864 125.79905640350631 0 0 0 1.3606178724404874 28 672 29 694 30 716 22 674 21 670 23 673 20 641 26 688 25 675 17 640 27 676 16 658 18 657 19 657
12968 -24.495218689627045 12.167881213407338 122.4587973255564 0 0 0 0.77751155188198873 23 669 22 669 21 664 20 637 26 681 25 670 24 655 17 636 27 671 19 653 16 653 18 655 28 667 29 689 30 715
12966 -26.075892414988541 14.013565091537872 140.96073979106046 0 0 0 1.3708782189830566 23 671 29 691 22 671 21 666 20 639 26 685 25 672 24 653 17 639 27 675 19 655 16 655 18 653 28 668 30 713
12965 -29.244926097300212 15.036656245786771 148.81255689569727 0 0 0 0.76303480291699599 23 670 29 690 22 670 21 665 20 638 26 683 25 671 24 656 17 637 27 673 19 654 16 654 18 652 28 665 30 712
12964 -19.504693864989612 13.109976288862297 139.3316960263752 0 0 0 1.8503093050835828 29 685 30 711 22 666 21 661 23 665 20 633 26 676 25 666 17 631 27 670 19 648 16 649 18 651 28 663 24 649
12959 -26.571103487094376 14.035242945882281 142.1444031502387 0 0 0 1.5331813181313343 23 663 29 682 30 706 22 663 21 659 20 631 26 675 25 664 24 646 17 630 27 665 16 646 18 647 19 646 28 661
12958 -25.824279754831959 12.079514724808252 121.97609689044562 0 0 0 0.68206311296831779 23 662 22 661 20 630 25 663 24 645 16 643 18 645 19 645 28 659 29 681 30 704
12957 -0.46941793350707567 13.407650467736325 166.84292480885154 0 0 0 1.0841703784497321 21 655 23 661 20 628 26 671 25 662 17 625 27 662 16 642 18 644 19 643 28 658 29 679 30 703
12954 -22.860544803383565 11.033126464656567 116.04707589367658 0 0 0 0.73088073242196561 23 658 29 676 22 656 21 651 20 625 26 669 25 658 24 640 17 621 27 660 19 639 16 637 18 640 28 653 30 699
12885 -21.347572639254604 6.1581537298907945 96.391462374183931 0 0 0 0.81671456232960415 28 555 29 581 22 556 21 545 23 557 20 530 26 573 25 558 24 545 17 523 27 568 16 539 18 536 19 546 30 599
12942 5.0778502719483791 13.417352728955711 184.67897128133765 0 0 0 1.62611703934075 29 661 30 683 22 641 21 633 20 609 26 652 27 644 16 623 18 622 19 627 28 638 17 603
12884 -13.059804618591979 3.7589296398661256 65.834182624563724 0 0 0 1.3515706069857916 28 552 29 580 30 598 22 553 23 553 26 569 25 557 27 564 18 531 16 536 21 542
12547 -2.2598998394402541 0.21309646148573647 16.686869693467688 0 0 0 1.6930016960115069 13 85 27 493 28 492 29 522 10 82 15 110 14 93 11 80 12 77 24 469
13221 -2.1997227071803338 0.16427139658691986 16.598089128921124 0 0 0 0.84481551958360357 3 3 15 4
12967 -26.223715972085419 12.630641342964648 125.27644812285882 0 0 0 1.0167313025526095 23 672 22 672 21 667 20 640 26 684 25 673 24 654 17 638 27 674 19 652 16 656 18 654 28 669 29 692 30 714
12888 -16.146293021912125 6.5954814822412313 108.41540338993975 0 0 0 0.72814862533812474 20 536 29 586 30 605 22 564 21 554 23 563 26 578 25 563 24 550 17 530 27 573 19 551 16 548 18 543 28 563
12916 -18.564128291790986 10.688219184766268 145.30833625408542 0 0 0 0.74895782557284407 16 591 29 626 30 646 22 606 21 597 23 604 20 575 26 619 17 572 25 605 24 590 27 611 19 592 18 584 28 603
12889 -19.868291251375538 7.9230611840560465 124.75252338145123 0 0 0 1.3385018817407002 20 537 29 587 30 606 22 565 21 555 23 564 26 579 25 564 24 551 17 531 27 574 19 552 16 549 18 544 28 564
13082 -2.242071480712335 0.2050958327302031 16.631914929777718 0 0 0 1.7104237015607049 23 450 30 527 15 94 14 78
12915 -15.438930573228781 11.068023881593394 157.13095226347031 0 0 0 1.2598879151356457 22 605 29 624 30 644 21 596 23 602 20 574 25 603 17 571 27 610 19 591 16 589 18 582 26 618 28 602
12748 -23.646941750046505 -2.8958256829034839 99.754525584729961 0 0 0 1.1962164015250034 28 98 29 100 22 98 21 92 20 95 26 94 25 98 24 96 17 93 27 97 19 93 16 93 18 98 23 102 30 101
12827 -15.674318819102112 0.68690894077854447 124.03154895690481 0 0 0 0.80681094813992982 22 402 21 402 23 402 20 394 26 403 25 397 24 381 17 398 27 395 19 409 16 403 18 397 28 389 29 400 30 410
12859 -1.5169363871959889 6.362873964048342 182.40013316098143 0 0 0 0.71153128087177064 21 511 29 534 30 542 17 490 22 520 23 522 20 495 26 535 16 504 25 523 24 508 27 529 18 501 19 508 28 517
12745 -22.677890666887922 -3.1870858519144911 96.561444388879636 0 0 0 1.0029591252243817 28 52 29 51 22 49 21 47 23 55 20 48 26 47 25 52 24 46 17 49 27 52 19 43 16 49 18 49 30 53
1401 -2.2268136715501181 0.19994599144526495 16.604123446407353 0 0 0 1.9898562176141035 14 67 13 61 9 56 7 39 25 445 28 466 29 487 30 514 21 428 27 461 15 82 20 411
12881 -4.7373484264457133 7.1552124833840427 152.14699802543885 0 0 0 1.0140086509863429 21 541 29 576 30 594 17 520 22 552 23 552 20 525 26 568 16 535 25 552 24 539 27 562 18 530 19 539 28 551
12891 -26.419190271218014 8.0624014980705692 113.76011488996609 0 0 0 1.07257317197524 23 567 22 570 21 560 20 540 25 567 24 556 17 536 27 578 19 555 16 554 18 547 26 583 28 567 29 590 30 608
13228 -2.2667020961271356 0.21526491561837238 16.697979762342818 0 0 0 1.676274360901199 3 50 21 463 20 445 4 57
12841 -22.109136224666184 4.1445520929307191 111.47139218532078 0 0 0 0.70721435215802331 28 455 29 460 30 463 22 488 21 481 23 493 20 466 26 484 25 479 24 470 17 462 27 464 19 478 16 472 18 471
12887 -18.685646181189092 7.5192365583362601 123.34616020044083 0 0 0 0.78074907737487387 20 535 29 585 30 604 22 563 21 553 23 562 26 577 25 562 24 549 17 528 27 572 19 550 16 547 18 542 28 562
12898 -24.434771532253212 7.8924598781912838 107.6555527012945 0 0 0 1.0639101167837666 23 579 22 581 21 572 20 549 25 580 24 566 16 565 18 560 19 568 30 620 29 601
12842 -19.549646146907222 3.397133095728909 83.628613364080223 0 0 0 0.69698957300003017 28 459 29 464 22 489 21 482 23 494 20 467 26 490 25 486 24 476 17 463 27 473 19 479 16 473 18 472 30 467
12921 9.1320996465436028 11.752317053570277 194.87670115070026 0 0 0 0.75922080138214409 29 632 30 653 22 612 21 603 18 592 28 609
2625 -2.2458123221786548 0.19822164343479767 16.659757585599891 0 0 0 1.2106859907500518 10 45 25 433 27 439 26 440 11 36 24 413 9 42 12 41
13072 -2.2463687132456167 0.20249339146170614 16.641783984430088 0 0 0 2.0285420039888509 20 414 30 506 15 78 5 33
12735 -122.16042318096608 -24.334271840152102 463.39379915653308 0 0 0 1.7472242252409111 28 12 22 10 25 13 24 10 17 13 16 10 18 10 26 9 19 10 20 13 29 12 30 14
3494 -2.2283426036228411 0.19917957764851352 16.619184788804567 0 0 0 2.6907425904005007 11 46 9 49 28 457 24 425 5 32 22 438 26 455 6 31 10 53 12 56
12930 -24.534258929665889 9.8047405047939762 110.49903361420934 0 0 0 0.98877585852068772 23 621 22 623 21 613 20 590 26 633 25 622 24 604 27 626 18 602 28 618 19 607 29 642 30 664
12918 -22.60531953191995 8.6029064205854482 107.83084369374804 0 0 0 0.81203310336017709 23 605 22 608 21 599 20 576 26 622 25 609 24 592 17 574 27 614 19 594 16 593 18 588 28 606 29 627 30 649
12960 -20.246822584177242 13.110240799046561 138.66386167744645 0 0 0 0.45730581318767743 24 647 29 684 30 707 22 664 23 664 20 632 25 665 16 647 19 647
13127 -2.2827007233808461 0.20575030913453357 16.662365326673143 0 0 0 1.562307216304212 10 55 15 73
12790 -19.108003138665737 -2.9641357787912028 131.94568406696328 0 0 0 0.97036699168808815 28 240 29 244 30 254 22 246 21 242 23 247 20 237 26 248 25 248 24 237 17 244 27 245 19 243 16 244 18 243
12890 -29.582649267860891 9.4832924751035446 134.31066696153752 0 0 0 0.82052996854304927 23 565 29 588 22 568 21 558 20 538 26 581 25 565 24 554 17 534 27 576 19 553 16 552 18 549 28 569 30 607
12753 -13.624704637670245 -3.9881587582578399 120.43023594073806 0 0 0 0.80160132637214254 28 129 29 129 30 130 22 124 21 122 23 131 20 120 26 122 25 125 24 122 17 121 27 123 19 119 16 126 18 124
5564 -2.2359969360449781 0.19486920338371325 16.642713334414669 0 0 0 1.8245895442195752 25 427 11 31 26 435 27 432 9 35 10 39 3 23 4 32 8 30 28 433
12978 -21.00579519672393 14.84866676419502 126.19579130173088 0 0 0 0.99001892246654444 23 691 29 715 30 736 22 697 21 692 20 660 26 706 25 695 24 674 17 663 27 695 19 673 16 681 18 678 28 692
12911 -21.261322418028008 7.6488987089323297 102.42889804310498 0 0 0 0.63970754060385837 28 597 29 618 22 596 21 587 23 596 20 568 25 597 17 561 16 580 18 576 19 585 30 638
6870 -2.2251926941902767 0.20773264235395553 16.600445688059747 0 0 0 1.6669491378643053 26 499 6 64 9 77 27 501 28 503 2 42 10 89 13 91 4 54 7 59 23 471 5 49 8 70 11 82 12 83 20 438 3 46
12936 13.003254367280157 14.118003864716874 208.64765646641578 0 0 0 0.60351178804643557 21 627 29 654 30 676 17 598 22 634 23 634 20 602 26 645 16 616 25 636 24 618 27 637 18 615 19 620 28 627
12953 -14.643337547659018 12.779576076975411 145.78798836619816 0 0 0 0.66904261294509837 29 675 30 698 22 657 21 652 23 657 20 624 26 667 25 657 24 642 17 620 27 658 19 640 16 638 18 639 28 654
6887 -2.2519114023197746 0.2006868515510826 16.672189596909838 0 0 0 1.530778017136893 24 419 10 49 6 29 9 45 25 437 4 36 8 41
4850 -2.2209593391837448 0.1990009840554896 16.597730563663212 0 0 0 1.8366507936518088 25 447 10 59 11 50 9 53 27 458 6 36 2 29 7 40 8 46 3 30 5 36
12956 -23.438444177304241 10.708008251650723 110.37837025276505 0 0 0 0.61142203263640005 23 660 22 660 20 627 25 661 24 643 16 641 18 643 19 641 28 657 29 678 30 702
12789 -21.104999023812951 -2.2832889717337155 117.96950785024828 0 0 0 0.86907248922333824 28 235 29 241 30 250 22 243 21 239 23 245 20 232 26 240 25 243 24 230 17 241 27 237 19 239 16 241 18 240
12947 -25.063131816139773 11.624789788804939 122.56816249022238 0 0 0 0.85769346677843805 23 649 29 668 22 651 21 643 20 617 26 661 25 649 24 634 17 613 27 653 19 633 16 631 18 630 28 647 30 690
12828 -3.0403389925693669 0.26598681152870429 22.766086588355904 0 0 0 1.217738026149257 21 411 29 405 30 413 17 410 22 414 20 402 16 415 27 398 19 423 18 413 28 394 13 7
12830 -7.805635418781347 0.87074325229073535 44.594227103563959 0 0 0 1.0921810401463239 28 401 29 412 30 421 23 427 26 420 27 413
13076 -2.2628276425222009 0.20616327063980303 16.682107392246557 0 0 0 1.8402086190470914 16 417 19 429 18 419 20 422 17 412 21 438 22 445 3 34
12909 -20.506800580355264 8.7198645079291506 120.97437752601974 0 0 0 1.2781612235723969 28 594 29 615 30 635 22 598 21 589 23 593 20 565 26 610 25 594 24 579 17 562 27 602 16 582 18 573 19 581
6867 -2.2125315748660972 0.20848185797573804 16.574788663712702 0 0 0 1.777681971375543 24 473 9 86 25 496 27 515 11 88 26 512 10 98 4 59 6 74 7 66 23 486 22 478 20 442 8 78 13 99 28 513 2 46 19 455 29 550 12 91 15 129
12933 -14.699430130634777 5.7359459610425816 70.276136047716747 0 0 0 1.9495099937141305 23 628 29 649 20 597 25 631 27 632 24 611 26 640 16 605 17 587 21 614 30 671
12950 -24.679946468339782 11.951489857917743 126.62480544986009 0 0 0 1.0470875466823868 23 650 29 669 30 693 20 618 25 650 24 637 17 614 19 634 18 632
12894 4.5908139611015324 8.7976957897156431 177.78028507341691 0 0 0 0.70270084923168119 21 563 29 595 30 613 17 539 22 573 23 572 20 545 26 587 16 557 25 573 24 559 27 582 18 552 19 559 28 573
12893 7.9189921339698301 11.088753363635774 224.01499543708394 0 0 0 0.83645986903906644 21 564 29 594 30 612 17 540 22 574 23 571 20 544 16 558 25 572 24 560 27 583 19 560 18 553 26 588 28 574
12899 1.6332905677090177 12.489710176014713 223.53199491366706 0 0 0 0.67690923451812468 21 574 29 604 30 623 17 548 22 582 23 582 20 554 26 596 16 567 25 583 24 570 27 589 19 570 18 563 28 582
12562 -2.2200921453962645 0.21083584815998227 16.641757181861067 0 0 0 0.78157704065746936 11 86 14 103
13063 -2.2674493991097875 0.20182090542793801 16.703141858615624 0 0 0 1.7665223128154619 24 414 30 483 4 34 18 411 29 463 17 408 21 424 3 27 23 428 19 424
12896 -6.5758071303348586 9.8852189191646413 172.19568544906869 0 0 0 0.9561483081160882 19 561 29 599 30 617 22 575 21 565 23 575 20 548 26 593 25 576 24 561 17 544 27 585 16 559 18 556 28 575
12902 15.637203966550809 9.6439455588909215 199.19936630263226 0 0 0 0.86267871639409155 21 575 29 605 30 627 17 549 22 583 23 583 20 555 26 597 16 568 25 586 24 571 27 590 19 572 18 564 28 583
13239 -2.2558856588074292 0.2002439759855616 16.673412563489521 0 0 0 1.8106533694948304 9 44 10 48 24 418 8 38 25 436 26 443 28 447 27 440 22 430 11 38 12 43 21 420 13 45 18 408 4 35 15 61 7 30 3 26 16 405 14 53 20 405 23 432
6858 -2.2555414969520093 0.20741677486725535 16.665544161121623 0 0 0 1.5877255940933501 25 465 26 481 9 66 23 452 7 48 8 54 27 479 3 38 24 446 20 427
12924 -23.619084504631374 9.5760240776948002 115.50075237046656 0 0 0 0.80527265647933355 28 611 29 634 22 615 21 605 23 612 20 582 26 627 25 613 17 580 16 599 18 594 19 600 30 657
12727 -2.2663995760632623 0.19784323111183533 16.702542848621672 0 0 0 1.7798274252719437 11 27 24 401 25 424 26 430 22 418 10 36 4 30 9 31 18 402 8 29 20 399 21 412 17 399 19 417
7764 -2.2423049832567972 0.19626842080667839 16.640284682627275 0 0 0 2.2458067791072684 24 405 1 21 8 33 2 24 22 420 6 21 23 420 4 31 20 400 21 414 18 403
12819 -22.816887509735299 0.16904767924102942 97.626133904900229 0 0 0 1.102910130006554 20 365 25 374 29 374 30 382 22 374 21 368 23 372 26 378 24 360 16 368 19 378 28 364 18 365
12941 -31.938962287737024 13.964411622992351 146.3523040032758 0 0 0 1.0655234912888565 23 640 22 642 21 634 20 608 26 653 25 641 24 626 17 605 27 645 19 626 18 623 28 635 30 681 29 660
12923 -16.939101281939656 7.1378546732976664 91.408575962962601 0 0 0 1.5923552966471941 28 612 29 635 22 614 21 604 23 613 20 583 26 626 25 614 17 579 27 618 19 598 16 598 18 595 30 656
385 -2.2376670121832376 0.20252268845709726 16.622766420624053 0 0 0 1.8173045606398033 10 63 11 55 13 64 26 469 25 455 28 469 9 57 12 59 15 88
9147 -2.2272325711151884 0.19666130750815392 16.608382350123261 0 0 0 1.293193357617161 13 48 28 451 14 55 29 473 15 66 30 492
12910 -22.42881547399956 9.791400475896296 134.48765480885436 0 0 0 0.69150868280578215 24 581 29 617 30 636 22 599 21 590 23 595 20 567 26 611 25 595 17 563 27 603 19 584 16 583 18 574 28 595
12913 -17.976298531202787 9.7334422159397445 136.03011612003456 0 0 0 0.7668124310665122 16 587 29 622 30 642 22 603 21 594 23 600 20 572 26 616 17 569 25 601 24 586 27 608 19 589 18 580 28 600
12919 -11.04200702222464 8.0016562613413971 115.48078526028863 0 0 0 0.88271775017956844 22 609 29 630 30 650 21 600 23 608 20 579 26 623 25 610 24 594 17 575 27 615 19 596 16 594 18 589 28 607
12922 -24.814344416504554 9.40507061970915 112.10813935753704 0 0 0 1.0558714370346425 23 611 22 613 20 581 26 625 25 612 24 596 17 578 16 597 18 593 28 610 19 599 29 633 30 655
12758 -20.897165338402349 -2.0683224964257705 97.47115105838094 0 0 0 0.7530306599061819 28 145 29 151 30 152 22 144 21 144 23 152 20 138 26 140 25 146 24 140 17 139 27 142 19 139 16 146 18 141
12925 -16.98609831277119 6.7418828682647902 83.860054422099864 0 0 0 1.7988628134812674 28 613 29 636 23 614 20 584 26 630 25 615 24 598 27 620 16 600 17 581 22 616 19 601 21 606 30 658
12927 -16.606508959804938 11.598273565568071 145.75867520207058 0 0 0 0.99858055205437146 16 602 29 638 30 660 22 619 21 610 23 617 20 586 17 584 25 618 24 600 27 622 19 603 18 598
12928 -64010.671156348988 27639.490878760531 275674.82511281926 0 0 0 1.6717946632871665 23 618 29 641 20 589 26 631 25 620 24 603 27 621 18 601 30 661 19 606
6917 -2.2642506953253609 0.20747301721719136 16.690963726749203 0 0 0 2.1356732997387251 9 59 27 468 26 473 28 470 6 43 11 59 13 66 10 66 15 85 23 447 25 458 8 51 12 63 24 437 29 490 14 70
12929 9.7246375768251365 12.349977230156471 188.97727349033346 0 0 0 0.87700966303216821 21 611 29 639 30 662 17 585 22 620 23 619 26 632 16 603 25 621 24 601 27 624 19 604 18 600 20 587 28 616
405 -2.2237066353853363 0.21116732026403684 16.596582786585923 0 0 0 1.6165664010437066 11 90 10 100 13 100 27 520 6 77 12 93 28 516
12874 6.5770866380969277 6.7178603143917837 175.16126131886602 0 0 0 0.85871112483760093 21 533 29 568 30 584 17 512 22 544 23 545 20 517 26 560 16 527 25 544 24 532 27 554 19 532 18 522 28 543
12931 10.107393220774538 11.971486889151066 181.76825843614751 0 0 0 0.83767962418711572 21 616 29 645 30 665 17 588 22 625 23 622 20 591 26 634 16 607 25 623 24 607 27 627 18 603 19 611 28 621
574 -2.2546851962539503 0.19735263457333063 16.658586472408118 0 0 0 2.2682555419944981 8 32 22 422 26 436 28 438 6 23 13 39 21 415 11 33 30 482 10 40 24 411 25 429 9 36 19 415 20 398 2 21 14 47 1 18 18 401 15 58
12932 -22.351783351048226 9.4094459855155943 107.6015071001447 0 0 0 1.3633827124306357 23 627 20 595 25 627 24 606 17 589 27 633 19 610 18 608 22 624 16 606 21 615 28 620 26 636 29 644 30 669
12934 24.357820939992983 14.384077836950103 226.92380344304956 0 0 0 2.1782513518511815 21 623 30 672 17 600 22 630 23 630 20 598 24 612 18 612 26 647 27 638 16 618 25 632 28 628 19 614
12935 -23.716914738969511 10.44878979257507 117.09851122242897 0 0 0 0.85184997475291602 23 633 29 653 22 632 21 625 20 601 26 644 25 635 24 616 17 596 27 636 19 618 16 614 18 614 28 630 30 675
12944 6.7431147478428617 15.553657395297423 211.01550182170706 0 0 0 0.75635549876430042 19 630 29 664 30 685 22 646 21 638 23 643 20 612 26 656 25 644 24 630 17 609 27 648 16 627 18 625 28 641
12945 4.2617937447967371 13.902013842497306 188.02559606941364 0 0 0 0.74708572883568825 29 663 22 645 21 637 23 642 20 611 26 655 25 645 24 629 17 608 27 647 16 626 18 626 19 629 28 640 30 687
12948 -16.8636012860688 14.330302825289651 164.02903221151644 0 0 0 1.2429909228474689 18 631 29 667 30 691 22 652 21 644 23 648 20 616 26 662 25 648 24 633 17 615 27 654 19 632 16 632 28 648
4599 -2.2194998336850715 0.20162396744120914 16.588004770753045 0 0 0 1.61480564588438 24 440 26 478 9 61 27 477 4 44 12 68 6 48 22 448 2 36 18 421 7 47 3 36 23 445 28 476 5 43
12949 -10.920522296103893 14.280063891732597 169.70220135313113 0 0 0 1.3504451158941464 17 616 29 670 30 692 23 651 26 663 25 651 24 635 18 633 20 619 19 635
12951 -9.1912486924254146 15.233988196413049 181.76943244361769 0 0 0 0.83202658256772877 17 619 29 672 30 695 21 649 22 655 23 653 20 621 26 665 16 636 25 653 24 638 27 656 19 637 18 635 28 652
12952 -9.158422173612415 12.767277151602812 152.81691112162898 0 0 0 0.91184270108655641 29 674 30 697 22 654 21 648 23 656 20 623 26 666 25 656 24 639 27 657 18 638 19 638 28 651 16 635 17 618
12886 -25.811890121230231 7.5029425094207385 111.0044233846274 0 0 0 0.88101305733714708 23 561 22 561 21 550 20 534 26 576 25 561 24 547 17 527 27 571 19 548 16 544 18 540 28 560 29 584 30 602
13053 -2.2247046691569317 0.19245696874344267 16.636189214002616 0 0 0 0.74876455004934872 25 415 30 470
13205 -2.204144045317546 0.17022232659405562 16.609114617638191 0 0 0 1.5108999699626067 1 4 15 5 4 10 14 5
12868 8.5417054348095824 6.8291932833539128 201.06485834892027 0 0 0 0.83971655643133403 21 526 29 561 30 565 17 504 22 537 23 538 20 511 26 550 16 521 25 538 24 522 27 545 18 516 19 524 28 533
2233 -2.224530871921786 0.19292768700190219 16.611365718296415 0 0 0 2.4845308592289963 9 38 11 32 26 433 28 434 10 41 13 36 7 26 3 20
12908 2.0240309342039882 9.8502882771812477 175.12493242193841 0 0 0 0.82077538960882113 21 584 29 614 30 633 17 560 22 593 23 592 20 564 26 609 16 577 25 593 24 578 27 600 18 571 19 580 28 592
13075 -2.2531655856402382 0.20499932599249787 16.664757134396815 0 0 0 1.4901408153500055 6 41 14 69 29 488 30 516 15 83
12738 -33.25085639267725 -5.2458121841970735 132.26190338830386 0 0 0 1.2858186720985092 28 37 29 34 22 33 21 33 20 32 25 36 24 32 17 35 27 35 19 32 16 32 23 37 26 32 30 38
12905 -22.028640318808158 7.3443879640454357 99.634205829934174 0 0 0 0.79724777825672022 28 588 22 588 21 580 23 588 20 560 26 602 25 589 24 575 17 554 27 595 16 573 18 568 19 577 29 610 30 630
12917 -26.786427982748737 10.257237701079053 125.65109391362058 0 0 0 0.88254983508811069 23 607 29 629 22 607 21 598 20 578 26 621 25 608 27 613 16 592 18 587 28 605 30 648
13084 -2.236837186398319 0.20465308031121165 16.619279286227034 0 0 0 1.7023446285744868 19 433 30 532 15 97 8 56 29 503 14 80
12747 -19.093187234892252 -2.2614096962588253 79.970164863548007 0 0 0 1.6099998827179045 28 59 29 60 20 64 26 52 24 59 16 60 18 60 19 56 22 57 25 62 23 71 17 56 21 57 27 56
13013 -2.2290668544308581 0.20144373535731802 16.607480750604232 0 0 0 1.5771309268998412 14 73 10 61 12 61 13 63 25 456 11 56 26 471 28 471 27 466 24 434 29 492 30 522 15 89 23 442 6 38
13208 -2.2189427921695555 0.2317945886352861 16.684921104013494 0 0 0 2.6707864234591252 2 63 7 77 4 71
12871 -18.557417252676721 5.8764952797953205 111.3058267692728 0 0 0 1.1265210067878138 20 513 29 564 30 575 22 538 21 527 23 542 26 553 25 541 24 528 17 505 27 548 19 529 16 522 18 519 28 537
12962 -28.597022704696137 14.900778749503973 148.58332622525043 0 0 0 0.74135849456364045 23 667 29 687 22 668 21 663 20 635 26 679 25 668 24 652 17 634 27 668 19 650 16 652 18 649 28 666 30 709
13129 -2.2519722552058692 0.20094523288844288 16.655165328197072 0 0 0 1.8942234794441384 1 26 2 27 6 28 17 407 11 45 27 451 13 50 28 453 29 474 12 49 30 493 19 422 5 27 15 68 26 452 14 58
12792 -20.043041101204928 -0.83934471120645127 82.666490799877593 0 0 0 0.97907441477011692 21 258 29 254 30 265 17 260 22 260 20 243 26 260 16 253 25 259 24 246 27 257 19 252 18 254 28 251
13171 -2.2464217716316219 0.19793944478183881 16.62051108161554 0 0 0 3.2570863793882712 7 31 15 63
13004 -2.2676806001817873 0.20553417904665588 16.700763118516196 0 0 0 1.3175858688191313 14 60 25 450 26 459 10 57 11 51
13204 -2.2002611175768529 0.16192366262035687 16.612559278066716 0 0 0 2.4656079667849462 1 0 15 0 10 0 4 0
12867 -17.4570210144051 5.9899904253747103 121.61776458500978 0 0 0 1.8724340264995369 17 500 29 552 30 563 21 520 23 535 26 546 25 535 27 542 18 511 20 505 22 532 24 521 28 530
12880 6.5787207826075784 8.1142639263656449 196.27122649116305 0 0 0 0.81745346238754102 21 540 29 575 30 593 17 519 22 551 23 551 20 524 26 567 16 534 25 551 24 538 27 561 19 538 18 529 28 550
13047 -2.2294886588691432 0.19082497370062154 16.619528425943372 0 0 0 1.690776052757337 27 422 29 443 28 423 13 27 15 40
13214 -2.269514473783643 0.19771027055552509 16.726657270706085 0 0 0 1.3703981126056597 1 19 29 444 3 21 12 30 28 426 13 32 15 39 30 461 27 425
12877 -21.682420636216559 5.8170057939811795 95.13013664188756 0 0 0 1.0672165819650039 23 547 22 547 21 536 20 519 26 562 25 546 24 533 17 514 27 556 19 534 16 530 18 525 28 546 29 570 30 588
13056 -2.2344805464500905 0.1951462415484555 16.630630353123568 0 0 0 0.90645057576397914 21 413 22 421 24 406 23 418 1 20
12977 -9.7041844134552573 17.919031516306024 163.82693929315272 0 0 0 0.76999657069490846 22 695 21 690 23 690 20 659 26 705 25 693 24 673 17 661 27 694 16 679 18 676 28 690 29 713 30 734 19 672
13213 -2.2219208671716988 0.19646102664423745 16.601990744446923 0 0 0 1.47475685150174 13 51 14 57 12 46 15 69 27 446 28 454 5 30
12876 4.8931805638959371 7.5546655120684596 187.37131755127751 0 0 0 0.77194010773821498 21 534 29 571 30 587 17 515 22 545 23 548 20 520 26 563 16 528 25 547 24 534 27 557 18 523 19 535 28 544
13134 -2.202964600680104 0.17705496973382637 16.59330138543806 0 0 0 0.96715866674253181 9 9 15 10 7 7
12797 -18.284603132233251 -1.4188345406491594 96.559928726449769 0 0 0 0.78122145395075815 28 271 29 277 30 286 22 278 21 274 23 279 20 269 26 281 25 280 24 268 17 279 27 277 19 276 16 274 18 274
13143 -2.2615673795905464 0.21337583062156579 16.672772616355243 0 0 0 2.2087056026659386 9 78 26 501 3 49 4 56 25 481 1 43 8 74 23 477 24 462
12806 -18.601891248790626 -1.2976007276265917 111.27256755941754 0 0 0 0.73588290047077132 28 337 29 347 30 353 22 345 21 339 23 345 20 339 26 345 25 346 24 338 17 342 27 343 19 347 16 339 18 342
44 -2.2307819152436767 0.20906010808412409 16.615396102810504 0 0 0 1.7320665417923802 9 79 26 502 13 90 28 502 29 530 27 499 11 85 6 68 15 121 10 87 12 81 25 484 23 476
12850 -6.1017573830683407 6.099966561547931 196.35244795399964 0 0 0 0.83640784114040256 21 497 29 500 30 502 17 477 22 504 23 507 20 479 26 518 16 488 25 507 24 491 27 507 19 492 18 485 28 493
12976 -9.6408593988284323 17.058245168004007 157.01832230157595 0 0 0 1.0162114575463432 18 675 22 693 21 688 23 689 20 658 26 704 25 692 24 672 27 693 19 671 16 677 17 659 28 689 30 733 29 712
13210 -2.2561560978360911 0.17528924259161494 16.360300113214954 0 0 0 0.10420967137865803 13 8 14 9
12873 -29.573889352352627 7.7872285432955302 123.54854863929907 0 0 0 0.87408757556476979 23 544 22 542 21 531 20 515 26 556 25 543 24 531 17 509 27 551 19 531 16 526 18 521 28 541 29 566 30 579
13005 -2.2419430171962396 0.20274035397597115 16.630271887850562 0 0 0 1.2580708504253189 14 71 25 453 24 431 26 465 23 443
13172 -2.2805341700149557 0.213072160834303 16.64299010964918 0 0 0 1.7773844248078126 7 54 15 113 13 84
12835 -24.872064738939713 4.222219244912977 131.46721167678453 0 0 0 0.72544058388844168 16 461 29 438 30 445 22 475 21 473 23 468 20 456 26 458 17 453 25 459 24 451 27 442 19 469 18 462 28 432
12498 -2.2506897327712614 0.19340792866906231 16.654704271188677 0 0 0 2.2008054440232159 29 445 30 462 25 414 26 427 11 23 15 37 14 33 12 28
12926 -38.579237575234728 15.59362593821996 172.23296459466951 0 0 0 1.7201128690070555 23 615 29 637 20 585 26 629 25 616 24 599 18 596 22 617 19 602 28 614 30 659
13093 -2.2470472122434888 0.20832804475734176 16.642434732775527 0 0 0 2.0584238006459032 8 61 13 80 27 491 7 51 12 75 26 489 29 516 28 487 15 108
12756 -15.663491242854377 -3.9420536317101664 124.4189285379192 0 0 0 0.95819620077389966 28 135 29 136 30 139 22 130 21 127 23 141 20 124 26 126 25 134 24 133 17 125 27 132 19 124 16 131 18 132
13014 -2.222207879916497 0.20357446216338834 16.59564580966385 0 0 0 1.585406974139058 14 86 30 543 13 76 25 470 10 73 9 67 24 448 28 481 26 483 11 70 22 456 8 57 15 103 7 50 23 454 27 483 29 513 12 72
13209 -2.2040812027485299 0.16327337169309758 16.50408073309632 0 0 0 2.8973822126775621 13 2 14 2
12872 -20.056242662323566 5.298811060077619 91.610568196971812 0 0 0 1.1394868209061479 28 539 29 565 22 540 21 529 23 543 20 514 26 555 25 542 24 530 17 507 27 550 16 524 18 520 19 530 30 577
13130 -2.2169512399321922 0.2092189213429978 16.592232239497331 0 0 0 1.6762465079702153 25 493 9 85 26 511 27 514 13 95 28 509 24 472 10 97 23 485 3 53
2867 -2.2188628655266385 0.20524682172493541 16.588929773369092 0 0 0 1.8800278799866594 5 46 9 70 28 491 24 454 25 476 13 83 22 463 4 48 10 81 2 40 18 435 23 465 20 433 16 427 27 495 29 523 12 79 19 441 8 62 1 40 14 94
12793 -15.779554776688059 -3.5417206423418377 142.32615539367731 0 0 0 1.5895677048218277 28 257 29 260 30 266 22 261 21 259 23 260 20 250 25 260 24 254 17 263 27 263 19 259 16 258 18 255 26 268
12961 -21.385001990506602 14.900292046451103 157.17281175954193 0 0 0 0.67450425311024431 24 650 29 686 30 708 22 667 21 662 23 666 20 634 26 677 25 667 17 632 27 666 19 649 16 650 18 648 28 664
13128 -2.2511997749564365 0.20341787141999568 16.652397693512764 0 0 0 1.4882292483024198 11 53 28 462 15 76 13 59 26 463 27 460
12791 -11.72430823075851 -3.7966132199330151 137.97527060064894 0 0 0 0.74304510325522055 28 254 29 257 30 262 22 256 21 254 23 257 20 247 26 256 25 256 24 245 17 257 27 254 19 256 16 255 18 252
12937 25.752634834262164 14.686115437584974 231.52711217570484 0 0 0 0.80127554247311683 21 629 29 655 30 677 17 601 22 636 23 635 20 603 26 648 16 619 25 637 24 620 27 639 18 616 19 622 28 633
13104 -2.218779370228019 0.20597388464147662 16.541882392536074 0 0 0 0.71733693807826815 16 429 17 425 22 466 18 440
12767 -22.980770089241922 -3.7702166702153046 139.67079582087518 0 0 0 1.0616205273979387 28 164 29 168 30 179 22 175 21 172 23 180 20 154 26 166 25 161 24 159 17 168 27 167 19 156 16 177 18 167
13192 -2.1994542205349883 0.22867871546889315 16.615401646429032 0 0 0 0.56375475517774642 7 80 2 66 11 107
13025 -2.2855338416139621 0.18606010654511296 16.659065901196506 0 0 0 0.78850646369080768 13 11 9 11
12920 -28.088130339057553 11.365346769939297 138.54624870617832 0 0 0 0.83208663836978636 23 609 29 631 22 611 21 602 20 580 26 624 25 611 24 595 17 577 27 616 19 597 16 596 18 591 28 608 30 652
13087 -2.2475390930878225 0.20623776725891996 16.624089318834883 0 0 0 2.1288669303485288 1 37 2 37 6 52 23 453
12750 -20.113895799078158 -2.1561286572388081 85.717835682711652 0 0 0 0.94207546133777975 28 110 29 111 22 106 21 103 23 114 20 102 26 104 25 109 24 105 17 103 27 107 19 99 16 107 18 108 30 111
12855 -20.300775835088938 5.2854737122132853 113.43286905828758 0 0 0 1.0069206031512141 28 508 29 519 30 520 22 514 21 506 23 518 20 489 26 529 25 517 24 502 17 486 27 525 19 504 16 499 18 495
10728 -2.2184632891558014 0.20923379372704895 16.588060351932029 0 0 0 1.8631289872724022 9 84 11 87 26 510 27 519 2 48 10 96 6 73 24 471 4 58 25 495 3 51 7 65 8 81 23 484 1 45 5 53 22 477
12912 -24.25306438013774 10.349045683469278 139.77025915776437 0 0 0 0.80861093408025342 24 583 29 619 30 639 22 597 21 588 23 597 20 569 26 613 25 598 17 565 27 604 19 586 16 581 18 577 28 598
12575 -2.2010748682253416 0.20592753261914401 16.537468395093391 0 0 0 0.90028032406297331 25 494 2 47 27 516 10 94
13079 -2.231345586492623 0.20290040664172354 16.618670748129013 0 0 0 2.3130954393550938 3 33 4 42 18 420 23 449 1 31
9197 -2.2193728151072909 0.20812001489546456 16.59487770084219 0 0 0 1.7845894159008187 10 91 13 94 28 507 16 434 26 505 27 504 29 539 17 437 21 465 12 84 15 124 25 485 30 576 19 452 20 440 18 446
12742 -69.672251791311439 -11.385669389585939 277.62055868614817 0 0 0 1.2060549103314331 28 47 22 43 21 42 20 42 26 41 25 46 24 40 17 43 27 46 19 39 16 43 18 44 23 48 29 45 30 47
8488 -2.2199441442186614 0.20340593363121168 16.592959210030386 0 0 0 1.8827114619028236 10 74 26 486 9 68 24 449 25 469 28 482 27 490 12 74 11 71 22 457 29 514 6 55 30 544 14 87 17 418 18 428 15 104 7 52 23 455 16 421 20 428 3 41 19 434 1 33 8 55
12869 6.3838887918636908 5.7951093273921259 170.56241113137 0 0 0 0.73350400523470505 21 525 29 560 30 567 17 503 22 536 23 537 20 510 26 549 16 520 25 539 24 525 27 544 18 517 19 523 28 536
12907 1.0646971163043135 8.7403851350837076 157.91228826907641 0 0 0 0.95807850677137596 21 582 29 612 30 632 17 555 22 591 23 590 20 562 26 603 16 575 25 591 24 577 27 596 18 569 19 578 28 590
13074 -2.2256179252876569 0.19999205538644266 16.594337001994333 0 0 0 0.96290547774530366 19 426 23 439
9192 -2.2322963842126828 0.20883359208018284 16.613994845992853 0 0 0 1.5813802563078911 6 63 9 76 4 52 27 498 15 120 7 57 23 470 25 483 5 47
12737 -19.163611721053119 -2.8772657791109872 77.95112409203513 0 0 0 0.99848934291515667 28 27 22 23 21 23 23 26 20 25 25 27 24 25 17 26 19 20 16 23 18 25 26 23 27 27 29 27 30 27
12901 -15.004015874505964 9.8078275293216688 151.91762568068808 0 0 0 0.63101239231638928 22 587 29 607 30 626 21 579 23 585 20 557 26 599 25 585 24 573 17 552 27 591 19 575 16 572 18 566 28 587
13068 -2.2544180861202441 0.20234558777177514 16.664455383814325 0 0 0 1.8375508857154568 16 410 10 54 25 441 3 29 18 412 21 427 8 44
12731 -15.866987268854887 -2.9962250246796183 69.431007807034916 0 0 0 0.80457803848954723 28 4 29 6 23 5 20 6 26 3 25 5 24 4 27 5 18 3 30 4
12900 -9.7175454194524775 5.7186572381575518 93.692368430056035 0 0 0 1.999388547025635 22 586 29 606 30 625 21 578 23 584 20 556 25 584 16 571 18 562 17 551 26 601 27 593
13067 -2.2680264890639026 0.20351210952671467 16.70347990944186 0 0 0 2.0281490490511658 9 48 11 44 13 49 24 422 26 447 27 449 10 52 25 440 8 43 23 436 14 54 22 434 20 407 16 409 28 452 29 472 12 48
12730 -23.40214216058542 -4.7019365375615285 98.252245564833615 0 0 0 1.4479069307995949 28 3 22 2 21 2 25 4 24 2 17 4 27 4 19 2 16 2 18 2 23 2 26 1 20 3 29 5 30 3
13026 -2.2054859422713569 0.1804911896563792 16.64146919027867 0 0 0 2.5290769131474704 10 16 13 12 12 11
12982 -23.178690902075186 17.310760082904501 140.56075759352075 0 0 0 1.2169288085293311 23 696 29 721 30 742 22 700 21 695 20 667 26 710 25 701 17 666 27 699 19 679 16 684 18 684 28 698
12981 -24.747150291523685 18.840310000526532 152.29088812304337 0 0 0 1.012216813145068 23 697 29 720 30 741 22 701 21 696 20 666 26 709 25 700 24 679 17 667 27 698 19 678 16 685 18 683 28 697
12979 -18.169594503233519 12.765520335765645 110.72614012899609 0 0 0 0.8012507501968813 23 692 29 716 30 737 22 696 21 691 20 661 25 696 24 675 17 662 19 674 16 680 18 679 28 693
9600 -2.2257666405489536 0.20402925942738806 16.615868347289485 0 0 0 1.7257178214226763 27 484 13 75 30 536 29 507 15 100
13145 -2.2509570672661803 0.21437833074894425 16.64800930695332 0 0 0 1.9919014852579271 1 46 2 51 6 76 9 87 4 61 25 497 26 509 7 67 8 82 24 474
12808 -16.32771058664839 -4.9226629629570455 232.18793629226991 0 0 0 1.1594624193477812 28 343 29 355 30 359 22 353 21 346 23 354 20 346 25 353 24 343 17 348 27 349 16 346 18 347 19 355 26 352
12879 -1.0148411014326535 7.4154446879284777 167.4718349917284 0 0 0 0.91779097327257175 21 539 29 573 30 592 22 550 20 522 25 549 16 533 18 528 28 549
12878 5.7676946932331283 7.7132974437638087 190.17376201397167 0 0 0 0.76066241465143014 21 537 29 572 30 589 17 517 22 548 23 549 20 521 26 565 16 531 25 548 27 559 18 526 28 547
12541 -2.2520301326296845 0.20975363085525014 16.659028007970967 0 0 0 0.9728034498161674 28 490 30 545 13 81
12870 -19.893386910903015 6.2571316407939559 117.99354724860284 0 0 0 0.3295481570860202 20 512 29 563 30 573 23 541 25 540 18 518 19 527
13242 -2.2453932247051562 0.19982788057182843 16.639495025599274 0 0 0 1.8447729909490809 9 46 24 420 8 42 12 45 11 43 10 50 6 30 21 422 25 438 23 434 13 52 29 476 26 448 27 445 15 70
12533 -2.2568003429292283 0.20843942379294436 16.675689697260392 0 0 0 1.6444177359192591 14 79 29 502 6 51 10 71 11 67 13 73 28 479 4 45 15 93 12 69
8279 -2.2286859568614377 0.20315585602053338 16.603412497875468 0 0 0 1.3519028779349918 26 482 10 70 12 70 25 466 28 480 13 72 27 476 9 62 11 66 29 504 30 533 16 413 17 413 15 98 14 81
12866 -22.286835270596363 5.6308339363479956 100.39809351282327 0 0 0 1.2055086127894401 23 534 29 557 22 533 21 522 20 508 26 547 25 534 24 523 17 501 27 541 16 516 18 514 19 521 28 534 30 562
12864 -3.0150613746419892 0.60846607079321791 23.927450631561509 0 0 0 1.045915784391386 19 517 29 548 30 558 22 531 21 519 23 531 20 506 25 533 24 519 17 499 16 515 18 512 27 540 26 543 28 529 13 102
12863 -22.936302883812147 5.4115337126499625 95.837663989373979 0 0 0 0.84631480933248704 28 525 22 529 21 517 23 530 20 503 26 540 25 531 24 518 17 497 27 535 19 516 16 511 18 507 29 547 30 556
12856 -19.785779533299749 4.3873248300618313 85.177595616776031 0 0 0 1.1719493475720562 28 510 29 524 22 515 21 507 20 491 26 530 25 520 24 505 27 526 16 500 18 497 19 506 30 530
9149 -2.2486931786760929 0.20094491672535805 16.645216940347684 0 0 0 1.5556968534475313 12 50 26 453 27 452 13 53 21 425 29 475 7 36 23 433 19 425
12853 -37.995663833472683 12.757909508197537 293.27191972961089 0 0 0 1.565824683826891 22 512 21 504 23 516 20 487 17 484 19 501 16 497 18 491 24 499 26 526 30 515 27 523 25 514 28 505 29 511 2 59
12847 -21.155275815771653 4.1939975204242321 91.546499729627683 0 0 0 0.78283369519625723 23 503 29 489 22 499 21 492 20 475 26 514 25 503 24 487 17 473 27 496 19 489 16 483 18 481 28 483 30 495
12846 -23.218867643657202 5.1052069840115859 121.995769337602 0 0 0 1.0012897185910552 20 474 29 481 30 488 22 498 21 491 23 502 26 507 25 502 24 486 17 472 27 492 19 488 16 482 18 480 28 478
12843 -160925.81910576069 93623.266202004263 3293960.6701219147 0 0 0 1.4998270838689853 21 486 17 468 23 498 20 470 16 478 19 484 18 476 22 494 28 465 29 467 27 480 26 492
12840 -27.510949867976997 5.7179949487996398 172.61814926507563 0 0 0 1.1322059956101864 16 471 29 451 30 459 20 465 26 479 17 461 25 475 27 459 19 477 18 470 21 480 28 449 24 468 22 487 23 491
13212 -2.2532908011473634 0.18684908804059719 16.416100347998903 0 0 0 0.25011461898279769 13 31 14 39
12503 -2.2347964036239389 0.19417817527614453 16.639261084983616 0 0 0 1.9036848432007343 6 20 15 51 7 25 13 38 12 36
12837 -23.955862052504497 3.7418029697767388 99.158348825304415 0 0 0 0.84487401656152294 28 441 29 447 22 482 21 476 23 481 20 460 26 468 25 468 24 453 17 457 27 448 19 472 16 466 18 465 30 452
12836 -19.372207885316993 3.1460372219922506 95.278566566633089 0 0 0 0.73255352272039254 20 458 25 461 29 441 30 448 22 479 21 474 23 473 26 462 24 452 17 454 27 443 19 470 16 462 18 464 28 437
12832 -18.110031807053304 2.1380874073761325 86.22625777054904 0 0 0 1.0950872982828079 20 426 25 422 29 413 30 423 21 437 24 412 16 445 18 442 26 424 28 405 17 439
10704 -2.2674646808163317 0.2003843469429063 16.699120291374534 0 0 0 1.5445814733858854 9 41 27 436 28 442 26 438 10 44 21 417 12 40 22 426 13 41 25 431 15 59 20 403 8 35 11 34 14 49
12831 -18.058788650882722 2.1857145498818635 104.86591304193119 0 0 0 1.1490002984661483 22 437 29 409 30 422 21 436 23 431 26 421 25 420 24 408 27 417 28 402
12494 -2.2576816480882873 0.19412001036916415 16.678606297153923 0 0 0 1.2254422894267041 12 27 27 423 28 422 13 26 26 425 15 35
12829 -19.236524942400088 2.4816700389717417 164.91774394176082 0 0 0 1.0569944307273049 21 430 29 406 30 416 17 429 22 432 23 424 20 421 16 436 24 400 19 436 18 430
8572 -2.2370147713978832 0.2061407827494274 16.620600742876409 0 0 0 1.1737648373481417 10 72 11 73 28 484 13 79 12 71 27 487 25 474 26 488 20 431 23 457 18 429
12826 -17.274555833673134 1.0047938011078523 72.351086303847268 0 0 0 1.3802433986727061 28 386 29 395 30 405 22 395 21 396 23 396 20 387 26 400 25 392 24 379 17 392 27 390 19 402 16 393 18 391
12825 -4.6688899879782699 -1.2687383365089602 121.40601090565478 0 0 0 1.2766315366299981 30 402 22 388 26 393 25 387 24 373 17 383 27 384 19 393 28 380 29 389
12824 -19.02588073001003 0.43974575505518143 97.594354262251926 0 0 0 1.139611920712208 28 377 29 392 30 401 22 390 23 391 26 391 25 390 24 371 27 382 16 380 18 381 21 386
12823 -106236.63982077122 -58370.50131375128 4275712.103429202 0 0 0 1.5010874962306187 28 379 30 399 21 388 20 381 23 388 16 382 18 384
12822 -9.240340678204003 -1.3891219503825816 124.47460572165075 0 0 0 1.4647697881583333 28 370 29 383 30 390 22 381 21 376 23 381 20 375 18 375
12821 -19.446348700336777 -0.50298846545600773 118.03416789313292 0 0 0 1.2395077465163313 28 368 29 379 30 387 22 378 21 373 23 378 26 381 25 379 27 374 17 371 19 383 20 371
12820 -21.022266048894437 0.15405999508247953 91.54671934948982 0 0 0 1.2280167923930077 20 366 25 375 29 376 30 383 23 373 26 376 24 361 17 369 27 372 19 379 16 369 18 370
12818 -16.499554551220626 0.22651840649052993 69.701175855101056 0 0 0 0.94372334385139467 20 364 22 372 25 372 29 373 30 381 21 367 23 371 26 374 24 359 17 367 27 370 19 377 16 366 18 367 28 362
12816 -8.8754264112561252 -1.3373880371356326 102.2000698524155 0 0 0 1.3835759168798059 28 359 29 369 30 376 22 369 21 363 23 367 26 369 25 368 17 362 27 365 19 373 16 362 18 363 20 359
12815 -17.90619140405418 0.076472390432702819 77.631718902872024 0 0 0 0.7932748824323117 20 358 25 367 29 367 30 375 22 368 21 362 23 366 26 367 24 355 17 361 27 364 19 372 16 361 18 362 28 358
10119 -2.2475415085875845 0.19655394095304227 16.674946452391673 0 0 0 1.5298323185966571 28 439 29 458 13 37 9 37 25 426 26 434 27 431 11 30 15 54 10 38 30 479 3 24 12 33
12955 -19.064620179834087 9.4889460438007056 101.89830776320211 0 0 0 1.2974957205127402 28 655 29 677 22 658 21 653 23 659 20 626 25 659 24 644 17 623 16 639 18 641 19 642 30 700
12814 -19.754107800362242 -1.9820005404551553 158.96203258804715 0 0 0 0.76383626162636653 28 353 29 362 30 368 22 363 21 358 23 362 26 362 25 362 24 351 17 356 27 360 19 364 16 358 18 358 20 352
12812 -15.431176927682454 -1.245079148633542 109.51413511863873 0 0 0 0.98283957880947337 28 346 29 359 30 363 22 356 21 348 23 359 20 349 26 356 25 358 24 347 17 352 27 354 16 350 18 350 19 359
12475 -2.2662611675100708 0.190086577792586 16.714358077017792 0 0 0 1.7231110836839485 27 409 25 405 26 413 11 16 9 18 10 21 4 22 8 20 12 18
12811 -16.154263153598876 -1.9824752683196323 136.71793312358773 0 0 0 0.78002954772764654 28 345 29 358 30 362 22 357 21 349 23 358 20 348 26 355 25 357 24 345 17 353 27 353 19 358 16 351 18 349
12810 -14.440416243154376 -0.1953762726879929 68.275279983486868 0 0 0 1.3961950406026342 21 347 29 357 30 361 17 351 22 355 23 357 26 354 16 348 25 356 27 352 19 357 18 348 28 344
12809 -26.225071099565415 -2.2974553896628507 174.35818942045935 0 0 0 1.2355985229825921 28 342 29 353 30 360 22 351 21 344 23 355 20 344 26 349 25 354 24 341 17 349 27 350 19 352 16 344 18 345
45 -2.2276458592777857 0.20802417686508479 16.59842175105252 0 0 0 2.2160350927108472 5 48 12 82 10 88 24 466 4 53 8 73 27 500 7 58
12807 -14.822270702431892 -1.1007008341491133 95.99142648993444 0 0 0 0.90233061432798711 28 340 29 351 30 356 22 349 21 342 23 351 26 348 25 350 24 340 17 346 27 346 19 350 16 342 18 343
12803 -19.021664882314116 -1.3757671284893396 104.70744435258048 0 0 0 0.74627101262611839 28 304 29 310 30 321 22 312 21 309 23 309 20 302 26 320 25 312 24 303 17 312 27 314 19 309 16 309 18 308
40 -2.2477721106562232 0.20781230091272093 16.644588619938663 0 0 0 1.7919072954096922 9 69 2 38 1 38 25 473 6 54 10 77 11 74 23 461 4 46
12802 -23.288586749593176 -1.0260585502107487 105.55719975190372 0 0 0 0.73182828262136845 21 308 29 309 30 317 17 311 22 311 23 308 20 301 26 316 16 308 25 311 24 302 27 311 19 308 18 307 28 303
